# .PCD v0.7 - Point Cloud Data file format
VERSION 0.7
FIELDS x y z intensity
SIZE 4 4 4 4
TYPE F F F F
COUNT 1 1 1 1
WIDTH 1327
HEIGHT 1
VIEWPOINT 0 0 0 1 0 0 0
POINTS 1327
DATA ascii
-2.4095621 1.2717324 0.7140072 29
-2.3360939 1.2930171 0.71941769 20
-1.6627494 1.26815 0.7657674 3
-1.4788084 1.3023999 0.68148065 38.5
-1.3559222 1.2844535 0.73452002 24.25
-1.1232941 1.300831 0.71086407 11.5
-0.89326239 1.3158271 0.72223556 2.5
-0.67912614 1.2848521 0.7075178 2.75
-0.51269615 1.2741147 0.74773753 3
-0.28944784 1.2753751 0.71060896 2.875
-0.076283813 1.2612293 0.66723377 8.5
0.10353178 1.2556113 0.70589268 5.75
0.28999144 1.2672327 0.68640178 7.1111112
0.4810794 1.2496378 0.68895942 6
0.71639955 1.2564001 0.67694908 13
0.89343679 1.2427446 0.64602876 18.25
1.1164272 1.2388017 0.68733668 13.333333
1.2634081 1.2419342 0.65474755 2.75
1.4924502 1.2231767 0.65052044 3.5999999
1.6631241 1.2294432 0.66150355 5.3333335
1.9322854 1.2382002 0.70924401 24.333334
2.044992 1.2333627 0.70295781 34.5
2.3263619 1.2264003 0.65948141 2
2.5350904 1.2335391 0.7222665 3
3.1000977 1.2043564 0.60345584 4
3.4980917 1.2018454 0.6767779 3
3.7256997 1.2253983 0.71164614 31
3.9053254 1.3147346 0.71790802 47.166668
4.0363321 1.2829854 0.65128529 40.57143
5.8938107 1.2288605 0.68925411 21.799999
6.0676675 1.2267029 0.69945329 21.444445
6.2853866 1.2366266 0.68651688 21.5
6.5299773 1.2366269 0.72079611 25.666666
6.7140393 1.2192824 0.71308655 21.666666
6.8882461 1.2284831 0.72428131 25.714285
7.113637 1.2325385 0.70862371 19.200001
7.3155189 1.2300061 0.68739957 17.333334
7.5480142 1.2866887 0.72322458 85.85714
7.6533661 1.2887905 0.61063534 89
7.9457974 1.293268 0.7029323 86.85714
8.0025883 1.2791731 0.66007674 84
9.3480635 1.2533302 0.74692768 96
9.7325211 1.2243373 0.67648965 31.25
9.9259615 1.2811563 0.68357134 74.260872
10.056431 1.2699069 0.63472039 72.333336
10.294835 1.2401377 0.66389406 26
10.436098 1.3031632 0.70664376 95.185188
11.30872 1.2127883 0.60128695 94
11.43247 1.2606593 0.77657521 90.5
15.179884 1.3944283 0.6426931 19
15.324868 1.3850213 0.63137913 9
15.567183 1.3476562 0.68175846 50.545456
15.663247 1.2787604 0.66197479 58.71154
15.929529 1.3077368 0.73888868 53.42857
16.064194 1.3350139 0.6963622 33.333332
16.291086 1.326807 0.71443987 7.7777777
16.511042 1.3182631 0.69362354 15.416667
16.706535 1.3151116 0.6620478 19.444445
16.882845 1.3019176 0.68222964 20.181818
17.129272 1.3213372 0.70748532 30.700001
17.266552 1.2927762 0.7337293 40.46154
17.415897 1.2891018 0.67257631 94.5
17.733606 1.2766403 0.66107386 88.099998
17.825169 1.2990557 0.6942476 80.333336
18.092812 1.2242279 0.7715674 75
18.726675 1.2649999 0.68078953 60.5
18.896362 1.2553867 0.69312608 21
19.10084 1.2224174 0.74921429 20.6
19.309984 1.2304995 0.73460734 18.6
19.513 1.2641243 0.68643951 52
22.702267 1.316233 0.65964174 97
24.736279 1.2534353 0.680794 49.545456
24.851341 1.3590295 0.74180865 66.5
25.034336 1.3991847 0.64040852 67
26.931904 1.2143524 0.76437342 59.75
27.262568 1.2775536 0.68299627 14.5
28.723116 1.2644528 0.72793871 44.875
28.842587 1.2331493 0.64282447 12
31.560463 1.288479 0.6895346 28.555555
31.612801 1.2672281 0.6846 27
33.866249 1.2192771 0.62553251 3
34.268745 1.2028472 0.6609149 24
34.759495 1.2099638 0.70688277 8
35.557652 1.2457564 0.75563014 48.75
35.601707 1.2301953 0.76642913 65
36.379276 1.2360789 0.74434435 88
36.447506 1.2232842 0.63292092 67.5
36.670761 1.2324964 0.60753667 2
37.247547 1.2266624 0.62470055 7
37.425381 1.2225292 0.64608109 9
37.636955 1.2056336 0.67209518 7
39.293869 1.242733 0.68937039 62.083332
39.47406 1.2087965 0.67803127 14
39.665405 1.2423452 0.76121527 23.375
39.947056 1.2009094 0.7349596 22
40.009411 1.2075585 0.64400548 20
40.351143 1.2316743 0.66722351 21.714285
40.447533 1.2122966 0.66186959 21
40.728058 1.2256459 0.61427021 19
41.324177 1.271553 0.71269685 12.380953
41.428879 1.3133954 0.73730057 5.5
41.632965 1.2132516 0.75863051 29.5
41.937145 1.3105667 0.64131063 40.608696
42.002174 1.2763112 0.63250577 45
44.531609 1.2516053 0.72835529 5.5
45.530624 1.2567647 0.73521674 2
46.700798 1.2794275 0.72895086 1
46.838364 1.2258484 0.76568681 9
47.558216 1.3068821 0.71801007 19.9375
47.627235 1.2840436 0.73819268 24.9
-20.874851 1.5358202 0.65358698 56
-5.7160745 1.463421 0.65392631 55.53846
0.090498075 1.4818363 0.67926067 3.3333333
3.7986221 1.4513197 0.7883867 60.5
3.9058709 1.5061786 0.71597576 46.900002
4.0043316 1.4099218 0.63898277 37.5
7.5868659 1.4836646 0.73921221 100
7.635406 1.4625319 0.6039061 27
7.960968 1.4894599 0.70342702 93.757576
9.9110937 1.4688896 0.69061798 81.818184
10.39927 1.4148716 0.66486567 100
10.44523 1.5032128 0.70462048 100
15.152374 1.519547 0.63913304 60.5
15.280167 1.4878079 0.65673608 63.583332
15.455333 1.4822358 0.70768028 69.866669
15.733963 1.5110958 0.77052093 86.5
15.890883 1.4502342 0.77130896 52
16.018379 1.4196081 0.70341295 7
16.875368 1.4845872 0.73071277 3
17.116394 1.4955724 0.71430343 85.333336
17.322649 1.4108223 0.67402482 75
17.844122 1.4208487 0.71015596 92.5
22.673796 1.5034796 0.75749511 13
23.603411 1.4309336 0.7204923 16
24.77733 1.4115659 0.66048241 71
24.835058 1.445145 0.67420799 53.363636
25.193539 1.5157131 0.78366101 6
26.897625 1.5514816 0.78549445 3
28.781181 1.4857011 0.75761878 82
28.819725 1.5677443 0.75754005 58
30.719843 1.5312787 0.66401678 7
31.563118 1.4409484 0.68643981 8
31.628445 1.4469166 0.66828233 7
41.319431 1.4667149 0.69596118 6.2857141
41.42638 1.476388 0.71947247 4
41.941898 1.4430901 0.63805896 22.799999
45.527287 1.5296211 0.69427061 4.6666665
46.642361 1.4888458 0.73241502 1
47.566483 1.4673994 0.76635814 23.777779
47.635105 1.4983428 0.79468328 27.799999
3.8749955 1.6426395 0.73736584 48.400002
4.0289345 1.6816199 0.62008607 32
7.9547677 1.6819534 0.67368829 96.235291
8.0056915 1.762445 0.68550408 100
10.441265 1.6989944 0.71223193 100
10.646951 1.7974747 0.76777244 33
10.936884 1.7891467 0.79257894 33
11.03252 1.7934058 0.76822215 34
11.341125 1.7936623 0.77923775 36
11.651342 1.7903271 0.79035401 37
11.984377 1.7979102 0.67346215 33
12.356867 1.7969184 0.69945705 31
12.490191 1.7953852 0.7087763 30.5
12.707289 1.7637956 0.64747715 29
12.896583 1.7704962 0.69438696 31.857143
13.102715 1.7629005 0.70275092 33
13.292161 1.765299 0.72564989 32.909092
13.471992 1.7667928 0.74025697 36.444443
13.677387 1.7577699 0.72039503 29.5
13.899809 1.731006 0.73219508 42.714287
14.085291 1.7295834 0.71054941 21.454546
14.295129 1.7156256 0.70759839 28.75
14.498633 1.7148826 0.70059383 28.75
14.711558 1.7192374 0.6860823 22.666666
14.900634 1.7145652 0.67960286 26.125
15.114708 1.6898474 0.66438812 35.916668
15.31398 1.6832598 0.67800945 45.153847
15.456765 1.6627852 0.70319903 63.142857
15.774611 1.6508909 0.79416037 54.333332
25.293962 1.767635 0.72464663 93
26.888941 1.6080053 0.7866081 3
28.773579 1.7472601 0.73945057 11
28.910839 1.7659826 0.72514588 26.6
29.039713 1.7904586 0.63633132 72
29.435942 1.7740562 0.60339952 1
29.899719 1.7494228 0.72574335 8
30.007021 1.797906 0.73369181 1
45.530022 1.7027233 0.76697075 7.5384617
45.680691 1.740225 0.77799028 1
45.899498 1.7390974 0.77846438 1
46.120735 1.742977 0.78146291 1
46.31155 1.7455528 0.7774514 1
46.498734 1.7345437 0.77822381 1
46.704933 1.7406908 0.78106654 1
46.868671 1.733963 0.78153682 1
47.12455 1.7456526 0.78537393 1.3333334
47.293022 1.6982095 0.7928775 1.875
47.50721 1.6398957 0.79586685 2
47.675121 1.6364063 0.78320122 18.333334
48.068451 1.7414113 0.626598 7
-21.070652 1.9000514 0.65114915 56
2.9482436 1.979604 0.75418699 49.200001
7.973444 1.8217845 0.68102932 84.666664
10.461783 1.8447479 0.68881482 78.5
10.695859 1.8617891 0.69290239 38
10.876488 1.8557993 0.66583627 37
11.07392 1.8478614 0.67697537 36.090908
11.287601 1.8469623 0.68575311 35.416668
11.488886 1.867612 0.66401172 29.545454
11.688171 1.8304648 0.6965571 33.81818
11.906527 1.8279904 0.6747244 34.714287
12.098945 1.8313794 0.71619064 32.666668
12.289393 1.8288149 0.71412963 29.857143
12.472239 1.812488 0.67859036 37.714287
12.675921 1.8046585 0.68589175 37.799999
12.958689 1.8059082 0.64099455 32
13.017269 1.8011384 0.77009857 34
13.761466 1.8024592 0.61786854 30
25.272047 1.901811 0.73641038 58.884617
25.41254 1.8818617 0.72381222 47
27.120201 1.9418135 0.6979928 74.4375
28.966036 1.8421681 0.71954095 72.25
29.073757 1.8838207 0.66167361 38.384617
29.279099 1.9299725 0.65318674 1
29.501026 1.8377403 0.66195178 1
45.565887 1.8418348 0.7756052 3.5
45.685528 1.854936 0.77885544 1.4
45.906948 1.8919797 0.77969849 1.4444444
46.034611 1.8299202 0.77559739 1
46.309227 1.8746914 0.77608794 1.4
46.493557 1.8726957 0.77622235 1.3529412
46.683693 1.8470945 0.77551013 1.2
46.846569 1.8092897 0.77717108 1
47.080032 1.8278589 0.79949492 2
47.474014 1.8304921 0.79892969 6
47.9888 1.869256 0.72029942 7
48.108856 1.9197367 0.7359916 13.764706
2.9715657 2.0436711 0.77174819 98
25.197676 2.0895116 0.77789092 1
25.261736 2.074403 0.74920672 18.818182
25.421413 2.1282258 0.6894151 79.199997
27.12945 2.096426 0.69362634 39.225807
27.201143 2.0929394 0.7167837 48.5
28.411823 2.0538132 0.74585176 1
29.015923 2.0625136 0.70371437 3
45.494354 2.1178877 0.75502372 2
45.602432 2.0013208 0.78650892 2
46.267555 2.0263596 0.78246498 2
46.476624 2.0358069 0.77863216 2
47.914627 2.0739975 0.72483379 6
48.098888 2.0957336 0.73935133 16.34375
2.337019 2.3766727 0.72643352 3
25.399086 2.2799516 0.68060303 30
25.460751 2.3409536 0.7054109 43.5
27.132557 2.2310698 0.65954459 20.25
27.213972 2.2473922 0.71219981 10
45.48328 2.2813396 0.74098742 2
47.957729 2.2960219 0.78440475 8.333333
48.118027 2.293617 0.74230826 12.166667
-20.917988 2.5916231 0.65473402 56
2.2923207 2.4501698 0.71760023 3
7.5034037 2.5287683 0.72866309 62
25.388773 2.4348898 0.72416443 7
25.460892 2.4627049 0.68320531 18
45.457363 2.5373256 0.74683189 14.857142
47.541431 2.5904651 0.77565825 1
47.690536 2.5604172 0.78275156 1.3333334
47.916695 2.5375614 0.76370728 3.5
48.099514 2.5287998 0.74268234 9.1428576
25.394609 2.7226124 0.67187285 4.5
45.479237 2.7042091 0.75119531 10.818182
46.494843 2.7815762 0.7581864 1
46.702534 2.7849832 0.75753802 1
46.901382 2.7764878 0.7576074 1
47.103367 2.7438982 0.7643705 1.0454545
47.291515 2.7074935 0.76688653 1
47.498688 2.6335313 0.77559513 1.25
47.646088 2.7033589 0.77932811 1.8888888
48.124947 2.7185524 0.72990024 11.375
-5.6682549 2.8233693 0.69426018 36
1.3138647 2.9423244 0.63357675 45.333332
2.8783188 2.9285393 0.75525773 41
3.0701735 2.8647482 0.76740468 42.5
18.515802 2.9569211 0.65404522 6
45.484543 2.9157929 0.73145342 5.7058825
45.747383 2.8705747 0.75190008 6.8461537
45.898777 2.8646555 0.74575508 3.3913043
46.107067 2.8486059 0.74570453 3.9473684
46.300419 2.8591721 0.75057143 1.1363636
46.501389 2.859277 0.75382936 1.1923077
46.704796 2.845782 0.75998414 1.1428572
46.896263 2.8244281 0.75815958 1
47.062103 2.8817759 0.77206844 1.5
47.271782 2.8687584 0.79039335 2
47.548523 2.8847051 0.76505339 1
47.64642 2.8338873 0.77769619 1.7142857
47.917931 2.9545839 0.7960403 4.5
48.1203 2.9078019 0.72010452 10.833333
1.1213217 3.0486333 0.61611307 6
1.3217832 3.0493839 0.69702417 40
1.7697611 3.157619 0.70668709 48
1.8510561 3.1820011 0.70572096 81
2.5959735 3.0581901 0.73387301 36
18.503004 3.1049469 0.65412861 7
25.571491 3.1220057 0.60693944 13
26.018911 3.0743611 0.72033471 3
27.849012 3.1788385 0.60898399 1
35.78083 3.1468103 0.61035705 4
45.495808 3.0845861 0.72743565 4.5999999
45.783035 3.0722508 0.77507007 2
46.15646 3.0240078 0.78359276 2
46.37104 3.043823 0.77986634 2
46.501877 3.0520222 0.77756417 2
46.688534 3.0594561 0.77424687 2
46.871593 3.0612869 0.77095133 2
47.032547 3.0587928 0.76802206 2
47.503914 3.0360067 0.75119185 1
47.74696 3.1331367 0.78834766 1
47.852142 3.0448227 0.79069996 1
48.113579 3.077292 0.71658975 6.1999998
1.041165 3.3161752 0.66034234 15
1.5650073 3.2881393 0.69157916 31.333334
1.9292914 3.2832081 0.69765145 88.111115
2.0366044 3.3386261 0.70074427 58
18.52319 3.3105216 0.69222385 6.1999998
25.161657 3.3652167 0.64956331 3
45.525921 3.3253813 0.68244904 16.266666
45.691383 3.3580949 0.67412019 16.777779
47.533386 3.3063371 0.78254598 1
47.650036 3.2347534 0.78314894 1
48.111095 3.3284793 0.70882022 8.3000002
48.207916 3.2988415 0.78407675 11.666667
1.0609063 3.4558661 0.64744085 14
1.9924893 3.4009395 0.69498312 17
2.099 3.4020381 0.69776618 11
18.5319 3.4993341 0.71502149 9.5384617
18.629131 3.5333824 0.69644564 13.5
25.321211 3.5317645 0.65169179 3
35.759502 3.5188012 0.70181394 4
35.800877 3.45222 0.69886827 4
45.524235 3.436197 0.70123756 16.142857
45.697193 3.4829538 0.70009726 18.181818
45.914509 3.5815144 0.65674168 22.625
46.038433 3.5774658 0.6596387 12
47.757717 3.585186 0.77872914 2
47.913998 3.5387287 0.76702529 2.2142856
48.103195 3.4772737 0.73243141 5.3333335
48.204273 3.5867436 0.74160624 2
0.74098372 3.6549337 0.64226985 23
0.82298589 3.6896446 0.64202082 40
1.9335608 3.6397653 0.72686094 49.5
18.5406 3.6957107 0.70628148 11
18.637117 3.6792946 0.75017983 17.333334
45.578037 3.6368635 0.7288512 23.5
45.668934 3.6529236 0.68099403 11.454545
45.909744 3.6458302 0.70196176 16.92
46.089794 3.6841419 0.73063916 6.2941175
46.299004 3.6964896 0.75228339 1
46.495457 3.689676 0.75601929 1
46.696239 3.6841738 0.75802898 1
46.85228 3.6760848 0.75928557 1
47.708187 3.6976297 0.7803781 2
47.897602 3.6782634 0.78560698 2
48.142525 3.6855946 0.74114978 4.8000002
48.226189 3.7701302 0.74798977 6
18.552551 3.9038 0.72365749 9
18.673443 3.8966684 0.75276119 14.125
19.179186 3.8629153 0.77474195 7
19.296513 3.9331975 0.7779305 3
19.406231 3.9644868 0.78149456 3
25.300114 3.9163046 0.63054609 18
35.788013 3.9231954 0.70800555 4
35.814735 3.9892383 0.68643707 11
46.022842 3.9853902 0.7652564 9
46.538498 3.9697194 0.77322382 2
46.934307 3.9726715 0.77074969 2
47.149597 3.9652302 0.76376313 2
47.302795 3.9164593 0.76418346 2
47.426395 3.8820524 0.75531906 2
47.739861 3.8373342 0.77788365 2
47.921959 3.8889787 0.77586371 4.5
48.128105 3.8865631 0.78042549 2.2
18.560444 4.0337167 0.73278856 10.75
18.674782 4.1310549 0.7473827 10
19.395361 4.0186939 0.78014916 3
19.509531 4.1000657 0.78298718 3
35.779152 4.0773535 0.7029748 8.5
35.828648 4.1198459 0.69580561 7
46.071541 4.1080613 0.74983066 2.4000001
46.318089 4.0768514 0.75502974 2
46.501614 4.109621 0.75520962 2
46.734093 4.1326766 0.75235152 2
46.882824 4.065485 0.75656265 2
47.061916 4.0546479 0.75048482 2
47.290665 4.0808721 0.75083643 2
47.537659 4.0715971 0.7981559 2
47.699203 4.1454692 0.76283228 1
47.869671 4.047749 0.76777446 1.6
48.242558 4.0231652 0.79967952 8
7.4822369 4.3308911 0.67383385 29
18.521036 4.3177404 0.63922274 6.1999998
18.634226 4.316834 0.70182317 7.3333335
18.809071 4.2377958 0.75072181 10
19.560097 4.2238922 0.78269345 3
19.687754 4.2836547 0.78637356 3
24.035706 4.3905072 0.72921485 4
30.146698 4.3959961 0.62203169 16
30.30584 4.2594156 0.63665748 3.5
35.774902 4.2909884 0.7391609 7.5
35.82196 4.2852426 0.7086066 4
46.089119 4.2724371 0.74744588 3.3
46.313324 4.2781343 0.75125873 2
46.510632 4.2961946 0.76187646 2
46.693401 4.3295884 0.78087711 2
46.922817 4.288682 0.78298295 2
47.136749 4.2087903 0.79031664 2
47.322956 4.3460021 0.74993485 1
47.524445 4.2567029 0.75483978 1
48.120392 4.3282166 0.71195865 3
48.267315 4.3851595 0.69439018 16.75
-3.0296335 4.521965 0.75971943 38
7.5000672 4.5053306 0.6632579 47.083332
18.536379 4.5038896 0.62780327 6.2857141
18.604555 4.4658561 0.67747164 6
19.797798 4.4111767 0.78816926 3
24.065876 4.4110479 0.72787976 5
30.096924 4.4222827 0.61925179 11.125
35.784428 4.5365076 0.68005198 6
35.880585 4.5314903 0.7910949 4
44.095856 4.5020657 0.70232081 1
46.103031 4.4664698 0.77559489 2.5
46.273678 4.4306965 0.76888585 2
46.480206 4.4742665 0.75740796 1.6666666
46.715168 4.5392432 0.73750603 1
46.818035 4.5240092 0.73787206 1
47.246387 4.5629301 0.7889812 1
47.753754 4.5269895 0.79246503 2
47.891563 4.5019011 0.79217982 2
48.162746 4.5316491 0.74093431 3.2857144
48.239555 4.5160961 0.69426423 5.1999998
-3.059262 4.741024 0.77167171 73
-2.990696 4.7507024 0.74036878 100
7.5075364 4.7187443 0.65205181 43.583332
9.7510357 4.7430539 0.70928955 47
18.540997 4.6959677 0.63261759 6.4000001
18.619473 4.7295566 0.61062413 7
35.787041 4.7258496 0.61384499 4
35.825302 4.6624742 0.79461598 4
46.102943 4.7679515 0.76928443 3.7777777
46.312557 4.7878337 0.76857418 1.1666666
46.488213 4.7761393 0.77318102 1
46.71389 4.7719641 0.77439296 1
46.897999 4.7557445 0.77631897 1
47.098408 4.7193508 0.78027672 1.0769231
47.268566 4.7140522 0.77454281 1.875
48.175213 4.6948028 0.73375511 5.3333335
48.208889 4.7176628 0.7449224 2.6666667
-3.0619075 4.9087291 0.78847796 82.333336
7.5201302 4.8945675 0.67896444 48.058823
7.9573641 4.9205198 0.61062253 3
9.7385836 4.9223051 0.67190677 30.428572
18.522196 4.9278803 0.68721718 7
19.565575 4.9891887 0.76623559 4
35.789772 4.8832536 0.69674367 7.1999998
35.829227 4.9125366 0.69801086 4.6666665
44.317917 4.9603901 0.75016838 3
44.546017 4.9241991 0.6676659 1
44.627983 4.8939228 0.67869127 1
46.113518 4.8841634 0.7524451 2.1538463
46.295906 4.8668451 0.75364918 1.6153846
46.508499 4.8169646 0.76340121 1.5833334
46.678368 4.8080902 0.76399136 1.8888888
46.805046 4.8081188 0.76342428 2
47.056744 4.8011227 0.7630046 2
47.918877 4.9475827 0.77948135 1.75
48.18129 4.8808308 0.74053001 3.75
48.211639 4.883543 0.71531034 3.5
-3.0611119 5.042829 0.77751803 79
7.5254307 5.1084676 0.70660537 43.5
9.7325392 5.0882359 0.65818334 26.90909
18.534651 5.0828404 0.70507812 8.666667
18.622406 5.1378803 0.72960168 8.75
19.349625 5.0015879 0.75781107 4
34.901756 5.1507387 0.76132888 4
35.789383 5.1111488 0.71741331 8.1999998
35.821934 5.0930123 0.67893237 6.8333335
43.868706 5.1229663 0.77394712 1
44.089462 5.1282797 0.7058838 1
44.291553 5.1508088 0.71631718 1
46.056442 5.1304207 0.7528789 2
47.720928 5.1047435 0.7586745 1
47.908642 5.0287504 0.76198292 1
48.153225 5.0649886 0.7565909 3.1666667
48.210686 5.046958 0.68787575 2.5
7.5187073 5.2975101 0.77252263 31.1
9.7284317 5.2896585 0.66346031 45.92857
18.543577 5.3083868 0.71518296 7.125
18.612617 5.285172 0.7246263 5
34.952587 5.2126946 0.76016188 4
35.784561 5.2824836 0.66936076 8.1999998
35.83556 5.3179889 0.71704996 7
42.975082 5.3157992 0.78650969 4.1666665
43.028934 5.360302 0.78802431 4.4285712
43.354408 5.2370744 0.747657 2
43.87994 5.3179102 0.7288118 3.1666667
44.091843 5.2945695 0.69305295 3.25
44.621208 5.2564201 0.71865767 18.5
46.070938 5.2000084 0.7763772 10
46.767101 5.3860331 0.76894367 2
46.957264 5.377172 0.73768312 1
47.099304 5.3360648 0.74151373 1
47.289104 5.2123327 0.77476263 2
48.17395 5.3199248 0.71847916 2
48.224335 5.2415285 0.65568793 1.5
7.5185084 5.4946957 0.75845218 27.727272
9.7495441 5.5080314 0.73336881 32.57143
18.553436 5.5205507 0.72065824 6.375
18.611122 5.5389585 0.7199108 5
35.791523 5.4746604 0.64270896 6.3333335
35.825855 5.5015249 0.69952029 6.1999998
42.517433 5.5681372 0.75830591 22.5
43.108093 5.4964757 0.77957785 5
43.557228 5.4480076 0.73553109 2
43.893463 5.4636827 0.69278777 1
46.128273 5.5032001 0.72174561 1.5
46.278233 5.4860415 0.72534049 1
46.53223 5.4636073 0.7384401 1.2857143
46.677307 5.447742 0.74411327 1.4285715
46.831684 5.4131012 0.74389911 1.3333334
48.235008 5.5127325 0.73855644 4.8571429
7.5190253 5.6866889 0.7421481 27.555555
9.7470255 5.6824865 0.73490936 33.142857
18.557615 5.7098932 0.7001946 6.3333335
18.622477 5.7025003 0.69080108 7.8000002
35.793678 5.7038937 0.67579293 7.5
35.835693 5.7343969 0.67783844 6.5
42.531525 5.6265793 0.75316155 20
43.117584 5.6069355 0.76851177 1
46.061749 5.7594776 0.78739268 3
47.116039 5.7842474 0.76020122 1
47.224678 5.7680902 0.7605958 1
47.793301 5.7976432 0.75500679 1
47.913029 5.7484765 0.75868362 1.1333333
48.120399 5.6781034 0.75860995 2
48.234257 5.6730423 0.72801203 1.6666666
7.5249095 5.8904881 0.72959304 27
18.558554 5.8870125 0.70681781 7.75
18.618845 5.9089551 0.683173 7.7142859
35.795696 5.9121547 0.65092987 14
35.837254 5.8896008 0.70762318 6.75
46.116261 5.9065356 0.76951957 5.0666666
46.304146 5.8659959 0.75532597 1.125
46.488438 5.8491898 0.76693046 1.3333334
46.700134 5.8598638 0.7572422 1.125
46.914352 5.8223038 0.7617681 1.125
47.169544 5.9954429 0.74845141 1
47.296623 5.9146752 0.76470751 1.4
47.564972 5.869421 0.7545284 1
47.696228 5.8392572 0.75714475 1.25
47.85318 5.8039408 0.75039613 1
48.152878 5.8948059 0.71156275 1.5
48.235851 5.9040537 0.74518949 2.5
7.5215187 6.1010585 0.712915 23.6
9.854331 6.1532917 0.77292651 26.666666
18.562197 6.0847158 0.69879496 8.5
18.622608 6.1044607 0.67725188 9.2857141
35.790661 6.0504007 0.69275868 8.5
35.834003 6.0985789 0.69113594 9.833333
46.141064 6.0863118 0.75351673 3
46.296761 6.1014886 0.74723077 1.3809524
46.452095 6.0801454 0.75215584 1.5
46.720963 6.0694585 0.75106126 1.3888888
46.890728 6.0465574 0.74812645 1.0714285
47.075336 6.0178022 0.74741721 1
48.192814 6.129746 0.67559129 2
48.272076 6.1071711 0.70003539 3.8
7.5260162 6.2708235 0.70560586 25.125
9.8496895 6.2837811 0.73631179 9
18.572124 6.3044248 0.67786199 9.8888893
18.629988 6.2936397 0.68055534 11
35.796364 6.3609848 0.63956666 14
35.831543 6.2870307 0.68388015 8.666667
41.487156 6.3693862 0.70742035 8
46.128914 6.2640638 0.75484091 2
48.180462 6.2771912 0.6609081 3
48.252029 6.3220153 0.68246716 3
7.5238314 6.4744935 0.68485534 23.4
18.564678 6.5069551 0.66415083 8
18.633997 6.5033488 0.67050767 9.625
35.79348 6.4369755 0.63771427 14
35.834427 6.5089464 0.70784229 11
41.501713 6.4064913 0.70526481 8
46.114761 6.5272141 0.77505046 2
47.977142 6.4524074 0.65064722 4
48.113117 6.4974236 0.67885423 4.3333335
48.260384 6.4783859 0.72345132 2.8
7.5274711 6.6938596 0.67490643 26
18.564152 6.7031126 0.65964228 7.5
18.629503 6.7095971 0.66868144 7.5
35.826595 6.7022095 0.65929341 10.25
46.126026 6.7533669 0.75775456 3
46.479782 6.6121683 0.76511514 1
46.956856 6.7987866 0.76964611 1
47.099655 6.7843518 0.76872373 1
47.276173 6.759491 0.76790714 1
47.974152 6.7139564 0.70143604 2.3333333
48.086067 6.7271008 0.75554013 13.777778
48.256069 6.7067657 0.73747551 9.8999996
7.5252633 6.9215059 0.65204906 36.099998
9.7623434 6.9836292 0.67747766 100
9.8587036 6.9384747 0.69443876 68.25
18.567015 6.8722744 0.67734104 9.166667
18.638081 6.901195 0.69348574 7
35.834621 6.9029446 0.66302329 10.666667
46.140862 6.9068842 0.7439208 5.375
46.296333 6.8844709 0.75972098 1
46.490013 6.8811479 0.76019686 1
46.681805 6.8734183 0.76016122 1
46.912285 6.8895164 0.73148602 1
47.131588 6.9627848 0.67791361 1
47.324245 6.895782 0.70379281 1.3636364
47.412434 6.8847423 0.73975772 1.6666666
47.993587 6.9752479 0.76569533 2
48.108063 6.8956356 0.70422262 9.7368422
48.24461 6.8909049 0.67436469 2.3076923
7.5547667 7.1401453 0.63757205 67.764709
7.7093601 7.1323662 0.63925499 71.344826
7.849545 7.1339498 0.64730406 84.909088
9.7550755 7.1127152 0.68520045 46
9.8134251 7.0031514 0.69371861 100
18.587999 7.1068764 0.69263905 5
18.62989 7.1093483 0.72973382 11.25
35.842083 7.1120133 0.68000519 9.6000004
46.164276 7.0876117 0.71339875 1.875
46.290154 7.0725336 0.69801378 1.3
46.501255 7.0658088 0.69188207 1.5
46.685234 7.0510802 0.69314528 1.3
46.856842 7.0127568 0.67683029 1
48.173794 7.0281696 0.6501798 1.5
48.250751 7.0949168 0.68747908 4.5833335
7.6035838 7.2269478 0.67041737 18
9.7293339 7.3453078 0.64725876 25.799999
18.597176 7.2286596 0.76179057 9
18.648283 7.2150679 0.78224766 2
35.849052 7.3195472 0.68918061 9.3999996
46.102726 7.3764739 0.75482416 4
47.504322 7.2756281 0.74373651 2
48.270332 7.2799993 0.66650552 2
7.5654578 7.4580402 0.65583116 34
9.7700949 7.4796834 0.66158456 34.333332
35.799835 7.5446062 0.79692209 4
35.849895 7.5111537 0.66942149 7.2142859
46.151955 7.5472836 0.74435848 3
46.288372 7.50383 0.73597169 3
46.488297 7.5247607 0.73132563 2
46.719368 7.4874496 0.73358446 2
46.83279 7.4263697 0.74035835 2
9.7581511 7.6977634 0.64570349 33.5
35.84742 7.7060881 0.67536819 8.1000004
46.147243 7.7490835 0.78925991 1
48.044872 7.6471643 0.78450793 2
48.238773 7.7247982 0.73249573 1.1666666
9.7541313 7.9301138 0.62905025 35
35.824451 7.8928876 0.67576057 11
46.162956 7.8654747 0.76832038 1.75
46.242474 7.8721733 0.76965749 1
47.489086 7.8679228 0.77325118 2
48.040043 7.8267579 0.68285549 2
48.257469 7.8882051 0.71777856 1.8571428
-2.8078175 8.0094652 0.69180328 7
-2.7592702 8.0667334 0.68909115 7
9.776948 8.04321 0.62424141 33
17.307919 8.1974955 0.62488675 13
35.834538 8.097497 0.6902644 8.4285717
46.144318 8.0793915 0.73156399 2
46.291122 8.1128616 0.7556572 2
46.478214 8.1206408 0.75374913 2
46.692924 8.1231718 0.75152743 2
48.113636 8.0842371 0.69175625 2
9.7761955 8.282917 0.61283517 35
17.274651 8.2872524 0.64003628 14.5
35.847153 8.3099327 0.65623325 9.3999996
46.150196 8.274601 0.67111909 2
46.215019 8.3042164 0.66584671 2
46.530689 8.2240028 0.67447251 2
46.705009 8.2277842 0.67051673 2
17.283386 8.4673624 0.64273977 15
35.85548 8.4761562 0.65442038 5.5
46.168041 8.5080824 0.71059752 3.6666667
17.186638 8.6359158 0.60636961 14
17.275482 8.7039595 0.66706544 16.25
46.187988 8.7493763 0.78414202 3
46.939106 8.7550297 0.61339593 3
47.588024 8.7758741 0.78918719 2
48.340652 8.7697582 0.7886216 1
48.451874 8.745615 0.78660202 1
7.8450618 8.9428902 0.79067296 6
17.191254 8.85182 0.60212708 14
17.281137 8.8998432 0.70953906 15.823529
35.830383 8.8284063 0.72840971 4
46.160645 8.9407406 0.74878073 3.7
46.295738 8.9484234 0.74779648 1.5172414
46.504642 8.9109621 0.75789344 1.6
46.696484 8.8834782 0.76995015 1.7407408
47.0089 8.8131437 0.60673845 3
48.13076 8.9075489 0.78213406 1
7.917089 9.0569925 0.78627968 6
17.286835 9.0889139 0.71177942 17.4375
35.876026 9.1288338 0.67373216 4
46.153847 9.0180073 0.70590472 1
46.315491 9.0172024 0.76090729 1.9
46.473766 9.007102 0.7685228 2
46.61274 9.0085812 0.768004 2
47.897625 9.0506744 0.77509797 1
48.045914 9.02742 0.77254146 1
7.882524 9.3093014 0.77518201 6
17.29085 9.3032627 0.71856868 19.461538
35.865444 9.2749672 0.6667949 4
46.167538 9.365344 0.77735752 2.3333333
46.301327 9.3805857 0.77359915 4
17.2946 9.5076256 0.75826824 20.888889
35.853516 9.4777069 0.65706563 4
46.194954 9.4801369 0.72932708 2
47.732422 9.4598331 0.79954386 1
17.288179 9.705225 0.73998845 21.25
35.853928 9.6511822 0.64852995 4
46.170013 9.7419462 0.76476818 2
47.696438 9.7770052 0.70677674 1.6
48.747391 9.7889223 0.67690271 12
7.7898102 9.9652729 0.74631596 16
17.295481 9.9099379 0.73580503 18.5
35.852718 9.8785791 0.63728911 4
46.153412 9.8659782 0.7702226 2
46.928139 9.9916525 0.73301136 2
47.026184 9.9578276 0.73421162 2
47.319023 9.9295979 0.72595131 2
47.721539 9.8789768 0.71251726 2.6666667
47.902817 9.9627323 0.69718874 12.636364
48.102833 9.952877 0.70413888 17.878788
48.300659 9.9482603 0.69790494 25.352942
48.50666 9.9241152 0.67933041 17.5
48.678234 9.9036512 0.6436376 11.32
48.820808 9.8729057 0.63704509 9
7.8409429 10.136086 0.73932266 19.5
17.340729 10.065745 0.7450636 13.444445
17.505772 10.079824 0.7547276 11.333333
17.700583 10.066593 0.76129186 13
17.880024 10.063642 0.73291051 12.7
18.080114 10.063708 0.70908612 10.833333
18.298925 10.079298 0.71106142 10.684211
18.498642 10.087576 0.71446019 11.368421
18.64139 10.119715 0.71075225 10.333333
35.85392 10.116012 0.62545079 4
46.178272 10.094305 0.72484577 4.4000001
46.291924 10.101121 0.73675388 2.1428571
46.533546 10.068248 0.7277509 1.9
46.693245 10.065698 0.730151 2
46.948395 10.062082 0.72240794 2
47.042511 10.055896 0.71980244 2
47.754032 10.038127 0.68870544 2
47.897427 10.056995 0.67344141 13.458333
48.097633 10.026152 0.66568702 19.380953
48.298309 10.019073 0.6566245 24.619047
48.475086 10.037807 0.6405983 15.058824
7.9287577 10.260981 0.76040095 83.666664
8.0551586 10.263647 0.75943804 76.400002
17.290773 10.318149 0.73585278 4
17.488152 10.216546 0.74542648 4
18.583767 10.29298 0.62171161 7
18.660458 10.322185 0.70148909 10.076923
35.842258 10.317937 0.73476678 5.6666665
46.236153 10.24278 0.7372815 3
18.573074 10.421484 0.61848712 7
18.662327 10.513702 0.67169976 9.25
35.847355 10.520817 0.72499061 5.6666665
46.266636 10.512626 0.7961036 1
46.419483 10.545508 0.79199022 1
46.738544 10.474864 0.79988283 1
47.991985 10.595726 0.60802567 2
8.0648842 10.719915 0.71567005 16
9.7397299 10.753272 0.79192394 18
18.572632 10.721047 0.61180162 7
18.664927 10.700965 0.69164705 6.7272725
35.830261 10.704194 0.77617884 6.6666665
47.858242 10.691223 0.62088829 2
7.9917793 10.944897 0.70550406 16
8.091856 10.87072 0.79561615 22
18.567825 10.910546 0.60738909 7
18.663456 10.913545 0.68003178 8.363636
35.84613 10.898183 0.76708919 8.333333
8.0794592 11.068079 0.75329846 27.799999
18.66353 11.125354 0.79376543 4
35.878513 11.104095 0.75663412 5.75
47.88208 11.151345 0.75763941 2
8.1738377 11.375905 0.68807429 23
35.874043 11.316298 0.74999702 4.8571429
47.764919 11.396023 0.76840162 3
47.838165 11.314589 0.77347797 1.5
8.1292591 11.480026 0.72911739 14
8.3583603 11.57475 0.75971371 41.666668
8.4709921 11.561904 0.73207098 36.666668
35.889206 11.520899 0.75133628 5
47.569111 11.424109 0.7740823 1
47.680859 11.41362 0.77492529 1.4285715
48.106915 11.584805 0.7850402 4
8.1654072 11.652811 0.74146348 35
8.2642698 11.646104 0.73053282 33.5
8.4070625 11.690516 0.77142513 28
35.8843 11.688272 0.74514079 5
46.675438 11.649755 0.78167796 1
46.990227 11.672012 0.76979548 1
47.030754 11.669832 0.76868182 1
47.687004 11.796905 0.77475011 4
47.867641 11.790321 0.72266322 3
35.902317 11.873514 0.75310361 5
46.180199 11.870289 0.77031219 1
46.214844 11.872021 0.76942158 1
47.870098 11.853428 0.75362587 3.5
48.095226 11.837215 0.76776677 8
35.88203 12.073276 0.72514683 5.2857141
47.685577 12.122291 0.74966055 9
47.835785 12.068317 0.76637554 12.5
48.045002 12.089528 0.75089264 12.5
35.897087 12.286814 0.74837959 5.1999998
47.583775 12.388582 0.73463428 4
47.713654 12.333777 0.72757387 18
47.923759 12.3374 0.68803728 10.6
17.313963 12.597718 0.60223371 7
35.884197 12.481551 0.73720425 5.3333335
45.727493 12.546749 0.75304937 43.5
45.81086 12.558523 0.75079268 26
46.199799 12.599907 0.74069268 35
46.339001 12.585289 0.73939335 35
46.50795 12.556055 0.7386204 35
46.702961 12.537856 0.73607683 29
46.923679 12.56019 0.70779413 11.625
47.045135 12.555374 0.70593077 15
47.592892 12.553946 0.71164477 16
47.684357 12.503274 0.72653532 14.428572
47.867264 12.497019 0.7011953 12
35.908913 12.679899 0.74002647 5.25
46.088734 12.606082 0.74209481 33
46.254009 12.602596 0.73946005 35
46.98642 12.602526 0.70053101 9.5
47.127575 12.713958 0.70097518 11.363636
47.223503 12.687873 0.76769191 48
47.523106 12.706569 0.73641974 23
47.712597 12.713429 0.70286351 16
47.814255 12.644083 0.66660678 3
8.0379953 12.902448 0.6214124 29
35.927315 12.916456 0.75896478 5
45.273514 12.98471 0.77287197 11.5
46.756321 12.98122 0.77278095 38
46.858963 12.944895 0.77494276 40
47.077194 12.89396 0.66721129 6
47.314281 12.898096 0.72877848 16.222221
47.506775 12.913419 0.68250322 15.571428
47.664646 12.900069 0.64748824 6.25
8.0816059 13.008894 0.72118211 8
8.242095 13.144633 0.76122296 8
35.925293 13.08971 0.73708308 4.75
46.354885 13.051289 0.79753703 7
46.478893 13.095331 0.77934784 19.5
46.65374 13.050555 0.76806021 34
46.886223 13.119448 0.71285093 19
47.290936 13.092748 0.63525546 10.666667
47.445625 13.046611 0.6306566 12.5
17.360325 13.292701 0.714167 5
35.925549 13.302432 0.75802594 5
45.78096 13.202913 0.75800788 16
45.919971 13.241478 0.75521153 13.333333
46.098164 13.279902 0.650612 6.375
46.300953 13.293011 0.64825368 12.277778
46.483276 13.29701 0.64890891 10
46.696274 13.234327 0.68564028 14.25
46.874802 13.330017 0.61869121 4
8.5546465 13.432331 0.75493717 36.333332
8.6606216 13.521935 0.75304985 25.666666
17.335361 13.553978 0.68111151 10.5
35.928898 13.516747 0.77026302 5.6666665
46.184658 13.46364 0.60233134 2
46.432201 13.444059 0.61107683 4
8.7623844 13.61334 0.71769732 21
8.8838482 13.701248 0.73270571 38.5
9.0951653 13.737505 0.74958622 70.800003
9.2765112 13.773274 0.72077531 48.5
9.4211168 13.781484 0.66538537 23
9.7641878 13.754707 0.67454654 75
9.9012785 13.723882 0.71713251 94.333336
10.041019 13.727238 0.75591201 99
17.314625 13.719627 0.67658943 10.5
17.409435 13.768313 0.68031931 9
35.926674 13.723699 0.76407826 5.8000002
9.3157463 13.832631 0.71839362 46.333332
9.5034809 13.810744 0.72620362 53.857143
9.6841335 13.864662 0.71698439 60.200001
17.341055 13.911181 0.67970055 8
17.498945 13.918469 0.68438804 13.642858
17.704237 13.914367 0.69181627 14.166667
17.912895 13.930969 0.70187765 14
18.103445 13.897967 0.70623195 15.4
18.306458 13.901909 0.70104045 14.368421
18.487722 13.919067 0.70498133 15.5
18.672783 13.928866 0.71818298 12.545455
35.935593 13.963844 0.75562203 6
9.1837816 14.049779 0.70299065 4
17.555576 14.060847 0.68780708 7.5
17.66927 14.055611 0.69240379 7.5
17.848436 14.008523 0.7248702 5
18.042534 14.001817 0.68607545 12
18.300797 14.012078 0.68534356 10
18.690813 14.080729 0.70314676 7.4285712
35.939079 14.122896 0.7549361 6
18.70808 14.319395 0.69829243 6
35.939888 14.278227 0.75430667 6
18.712198 14.503313 0.6891281 7
35.947948 14.499415 0.7531786 6
18.728155 14.707642 0.7102049 6.3333335
35.950119 14.717486 0.75216746 6
18.729626 14.896497 0.70256174 6.1999998
35.939915 14.924797 0.7514739 6
18.722401 15.099949 0.69250631 5
35.95153 15.104328 0.75031042 6
18.712509 15.204739 0.69377422 5
35.960495 15.277449 0.74921614 7
18.738022 15.4823 0.68510497 6
35.949539 15.435366 0.74867028 7
18.699539 15.695127 0.67118776 6
18.801592 15.69446 0.68595254 5
35.965923 15.627024 0.74723476 7
18.794334 15.961084 0.67999363 5
35.95805 15.869359 0.75045925 6.6666665
18.768911 16.106108 0.67771977 6.25
35.955009 16.107594 0.76467085 7
18.7243 16.526039 0.63935459 7
18.808914 16.473839 0.66928893 5
35.965073 16.507135 0.75118279 7
18.795818 16.781944 0.66639113 6
35.971439 16.697014 0.74939227 7
35.973698 16.89184 0.74756974 7
35.97641 17.085514 0.745754 7.5
18.797998 17.23217 0.65236348 6
18.836796 17.236248 0.71357453 5
18.743544 17.755671 0.60909021 8
35.982185 17.688078 0.74630874 7
18.728897 17.967299 0.63421202 6
18.807676 17.891886 0.64379263 7
35.979008 17.877638 0.73225111 8
35.993385 18.123022 0.74084955 8
36.015003 18.13051 0.72953987 8
18.752031 18.228243 0.62904859 6
35.992729 18.336374 0.73824519 8
36.013153 18.33597 0.7279883 8
18.791235 18.542446 0.68938351 7
18.797512 18.964796 0.63264972 7
18.8256 18.804644 0.63166696 7
36.00626 18.96829 0.72303033 9
36.038971 19.055172 0.72832012 8
18.852575 19.256474 0.60868222 6
36.028561 19.516088 0.69303268 8
22.874239 36.052666 0.76495409 20
29.772121 39.869801 0.78538251 24
8.6944113 -25.865438 0.91579282 10
8.8959179 -25.770863 0.91722608 10
9.100111 -25.794834 0.91767931 10
9.2356634 -25.789877 0.91809142 10
18.16696 -24.160583 0.85069108 10
18.231318 -22.83194 0.90122986 10
18.2076 -22.599167 0.90495157 10
18.103054 -22.349213 0.85920238 20
46.807693 -22.249548 0.93961906 7
18.141472 -21.499502 0.86498946 9
47.911591 -18.866323 0.80801821 65
48.099728 -18.869881 0.81012273 100
48.290737 -18.889549 0.81141973 100
48.527428 -18.891712 0.81409562 90.5
48.719543 -18.905586 0.81561822 100
46.285675 -17.406052 0.86078531 100
46.497444 -17.404888 0.86374211 100
46.708393 -17.431509 0.86522961 100
45.319294 -17.368317 0.84886611 87.5
45.48658 -17.374516 0.85101908 100
45.710987 -17.3685 0.85458404 85.25
45.897339 -17.368507 0.85725212 100
46.089878 -17.360577 0.86036891 71
46.269482 -17.347473 0.86353189 100
46.872818 -17.353264 0.87137175 75
46.930733 -16.496395 0.91550183 78
47.091434 -16.49572 0.91761339 100
47.291553 -16.482874 0.92080736 42.666668
47.495392 -16.512054 0.92188048 71.5
8.1602325 -13.195081 0.82211167 17
7.7083702 -12.882221 0.82596338 4
7.916544 -12.85247 0.8288886 17
8.0856419 -12.859518 0.83031666 19
7.7172861 -12.796893 0.82831061 4
45.104 -12.636616 0.96809834 4
45.20269 -12.714676 0.96332312 4
9.0725088 -12.508762 0.82048529 4
45.315338 -12.577756 0.97238445 8
45.478031 -12.574404 0.97285438 17
9.1338339 -12.391539 0.85020065 4
9.5365658 -12.169934 0.82417166 2
9.5452585 -11.904539 0.86485589 12.5
9.2835579 -11.784587 0.83269435 4
7.6861238 -11.598411 0.80300403 2
9.2629585 -11.516376 0.87412715 4
9.2030573 -11.348351 0.87833142 4
9.5441399 -11.216256 0.80451441 2
7.7348075 -11.162718 0.87137103 4
7.6958957 -10.80866 0.82723039 2
9.5493879 -10.894987 0.81468201 4
45.005352 -10.830668 0.83896208 7
7.7429786 -10.677482 0.88415903 16
9.598403 -10.65899 0.89817935 16
9.3444881 -10.498278 0.90159726 4
9.5459919 -10.554626 0.82546347 4
7.7417951 -10.291574 0.894225 20
9.2937107 -10.293651 0.85230082 2
9.4776459 -10.259442 0.85066408 2.3333333
7.7149858 -10.007414 0.85205936 4
9.5063105 -10.157296 0.87816048 6
23.74078 -10.098286 0.95983869 4
25.080469 -10.002645 0.83700883 3
25.293262 -10.010651 0.99747932 11
25.718172 -10.016319 0.85521561 11
25.914518 -10.003133 0.86112821 3
26.299213 -10.028363 0.88095033 18.200001
26.488962 -10.028237 0.8846007 12.333333
26.940311 -10.018758 0.88481951 7
27.098921 -10.025835 0.88772649 18.428572
27.304634 -10.030102 0.8915152 25.888889
27.496836 -10.025081 0.89523393 16.714285
27.710169 -10.027759 0.90216589 46.799999
27.896963 -10.040089 0.89967895 22.866667
28.104628 -10.045981 0.89830059 14.947369
28.28801 -10.06516 0.8967979 16.82353
28.476492 -10.082335 0.91003919 8
28.680237 -10.06604 0.91230237 12.714286
28.829058 -10.03168 0.91391486 13.666667
29.063917 -10.024906 0.90343225 6
29.306414 -10.063814 0.88464874 3.25
29.486399 -10.06069 0.87915266 42
30.080019 -10.06537 0.81995916 11
7.7422199 -9.921772 0.90387493 23
9.5432997 -9.9027233 0.84598303 3
24.525711 -9.8811188 0.97005624 22.666666
24.687553 -9.910306 0.97608459 3
24.918493 -9.8461781 0.92246228 14.428572
25.105209 -9.8629322 0.89344901 15.285714
25.298906 -9.8910065 0.84836614 13.769231
25.489506 -9.8980675 0.83388072 13.769231
25.701847 -9.9154282 0.8621434 12.222222
25.878229 -9.8887053 0.86805183 18
26.116743 -9.8742599 0.85504168 46.18182
26.307014 -9.8330412 0.87405038 15.111111
26.50976 -9.85956 0.86502606 10.526316
26.705734 -9.8767166 0.87765771 10.083333
26.894089 -9.9004297 0.88130409 9.3999996
27.094572 -9.8978386 0.88098592 10.666667
27.30854 -9.8940315 0.87704486 11.181818
27.517113 -9.8764143 0.88701349 11.333333
27.690399 -9.8946218 0.88125348 36.583332
27.91431 -9.9106922 0.85728055 26.1
28.086241 -9.8963594 0.87096387 17.636364
28.317987 -9.9127808 0.86387378 13
28.498739 -9.9047794 0.8724454 15.285714
28.687502 -9.8780785 0.87041146 13
28.906612 -9.9148922 0.8846969 12.285714
29.095366 -9.9224586 0.87536758 6.4615383
29.290895 -9.9380226 0.86867905 8.875
29.523542 -9.8883801 0.88174462 57.166668
30.077663 -9.9073267 0.82409841 13
45.318947 -9.8184519 0.93116879 24.5
9.5648165 -9.7622261 0.85021734 4
24.386868 -9.721055 0.96678573 40
24.771553 -9.7230415 0.80140942 26
24.927706 -9.723053 0.80226892 19.714285
25.095892 -9.731617 0.81475812 19.083334
25.2915 -9.7525854 0.81827921 21.066668
25.496431 -9.7600145 0.82022524 21.470589
25.700661 -9.7597761 0.82755017 18.375
25.904617 -9.7637501 0.83073252 21.142857
26.085381 -9.7681665 0.8359006 38
26.307789 -9.7517204 0.8400349 17.1875
26.501007 -9.7573528 0.83739001 18.4
26.702393 -9.7530041 0.837273 18.09091
26.893116 -9.7573013 0.83781624 18.200001
27.104609 -9.7500315 0.84424758 15.333333
27.26853 -9.7710609 0.85145217 12.666667
27.467314 -9.773035 0.84992719 7
27.649736 -9.7666302 0.85217714 14.333333
28.435902 -9.7875805 0.86558509 13
29.348251 -9.7835732 0.86152166 16
29.549566 -9.7310839 0.88617033 54.666668
30.092705 -9.7263384 0.83002001 14.5
7.7396846 -9.595726 0.91233361 31
9.5540562 -9.5453377 0.85706222 4
24.43646 -9.5063896 0.80321133 50
29.556269 -9.5235348 0.88695782 50.599998
46.140984 -9.4114151 0.85563225 2
7.7215867 -9.2519493 0.86173016 18.5
9.5609131 -9.2715816 0.88115406 16.333334
9.602766 -9.2944727 0.934506 18
24.368946 -9.3420734 0.80724823 61.5
24.443731 -9.2740746 0.81201208 63
29.565035 -9.3124008 0.88311505 56
7.6994328 -9.0266008 0.80952811 22
9.5582876 -9.0620975 0.87201548 15.5
24.366789 -9.1521225 0.8160966 68
24.442375 -9.0837946 0.82089794 68
29.568243 -9.0978699 0.89135963 55.799999
7.6999321 -8.8075542 0.8166948 22
9.5625839 -8.8517885 0.87845743 24
24.374598 -8.9103308 0.82755774 74
24.44158 -8.9020443 0.82937872 74
29.575432 -8.8920202 0.89931738 55.75
9.5675097 -8.6877661 0.89900941 22
24.372957 -8.689188 0.83782685 69.5
24.448599 -8.7110443 0.83844078 74
29.567589 -8.7013264 0.90488541 24
9.5692902 -8.4482088 0.89074719 24
9.6508083 -8.4337969 0.9382121 18
24.382565 -8.5025005 0.84671259 78
24.443655 -8.5444088 0.84609234 50
29.579184 -8.5374136 0.84056872 56.333332
47.109924 -8.4542847 0.946073 2
47.317764 -8.5652313 0.93266201 2
9.5728607 -8.2945681 0.91089541 21.333334
9.6067648 -8.2858477 0.96134871 18
29.582464 -8.3093405 0.81759435 89.333336
47.259274 -8.28438 0.87240571 16
9.5754042 -8.0502882 0.91825551 22
9.6547928 -8.1092272 0.94794166 20
29.58761 -8.1151066 0.82821453 72.5
45.351746 -8.00702 0.84886038 9
45.564423 -8.0070276 0.85262299 1
47.119141 -8.0937109 0.98185128 7
47.234848 -8.0913916 0.85192114 21
7.8969393 -7.878334 0.90741372 8
9.5757914 -7.8884602 0.90761751 24
45.273487 -7.9396257 0.85546321 18
45.496323 -7.9190698 0.86211872 27
47.270832 -7.9083405 0.91539162 18.666666
7.892056 -7.7076955 0.91718322 18.333334
9.5785379 -7.7032127 0.92865497 24
9.6581535 -7.7945852 0.95734489 20
45.143864 -7.6181483 0.89156032 12
47.327927 -7.7873368 0.88746643 89.75
47.403278 -7.6600242 0.90197808 29
7.8922825 -7.4940014 0.91832697 20
9.5768003 -7.4543114 0.92056566 28.666666
9.6229782 -7.5001893 0.95567751 22
47.406292 -7.4741278 0.92388844 33
7.8908706 -7.3188629 0.92838913 17.666666
9.5832329 -7.2858987 0.94101089 23.333334
9.6595707 -7.2076697 0.97478896 22
46.055935 -7.2072697 0.82944697 2
47.410286 -7.3050146 0.94377351 24
7.3893132 -7.0725927 0.85452276 91
7.5032425 -7.1071453 0.89150441 95.388885
7.7017484 -7.1040463 0.90830153 94.833336
7.8425498 -7.1056452 0.90036631 86.800003
9.5848818 -7.0885897 0.94506305 24
17.372253 -7.0297709 0.82468784 100
17.475918 -7.0304232 0.82635027 88.5
17.988646 -7.0202527 0.8778317 100
18.120274 -7.0113816 0.87864876 100
18.34638 -7.0279231 0.87853688 53
18.41625 -7.0244584 0.87886143 46
45.372707 -7.0139847 0.96932739 3
47.422539 -7.115521 0.96593624 26
7.4252667 -6.9414053 0.89508569 27.5
9.5816526 -6.8801703 0.94992 32.599998
9.6253939 -6.9289684 0.91546077 26
18.053661 -6.9982538 0.879035 100
18.231981 -6.8599877 0.88576519 31
18.477943 -6.9320526 0.94967723 3
45.17252 -6.9469604 0.97320127 7
47.426849 -6.9110975 0.9898755 24
9.5853186 -6.6813035 0.94771522 36
9.6335936 -6.7326522 0.91521889 25.666666
18.477837 -6.7009511 0.95623827 3
35.516869 -6.728086 0.81360793 32.25
35.617088 -6.7276649 0.81675011 31
45.163242 -6.7346463 0.99860191 16
47.4403 -6.7230921 0.80830133 26
9.5836563 -6.4950714 0.96033573 32.599998
9.6290874 -6.5132246 0.9080326 28.200001
18.481073 -6.4743347 0.96269631 3
47.448151 -6.5096092 0.84025413 27.666666
9.5879707 -6.2928305 0.96870762 34.25
9.6214485 -6.2914238 0.9136939 32.666668
18.486389 -6.3155565 0.96724153 3
25.904593 -6.2784123 0.96182078 47.583332
28.113331 -6.2094045 0.85427129 13
45.18314 -6.3066435 0.8704412 11
45.366089 -6.2847557 0.87843823 9
47.456535 -6.312716 0.86959124 29
9.5791111 -6.1430178 0.95844883 36
9.6221399 -6.0871563 0.92005497 29.666666
18.162275 -6.0186148 0.99047679 21
18.226505 -6.1023545 0.91965771 51.333332
18.489145 -6.1128068 0.97302896 2.5
25.896521 -6.0988874 0.94949478 49.722221
28.122299 -6.0874276 0.89430261 44.333332
35.875565 -6.0448418 0.98667014 20
47.489788 -6.1203947 0.92266405 21
7.7560754 -5.8187861 0.93465692 29.333334
7.8240714 -5.8361301 0.94277102 17.666666
9.5802307 -5.9237075 0.96452963 34
9.6353416 -5.8884139 0.88624829 26.799999
18.165781 -5.8960361 0.9933567 29
18.232025 -5.8965445 0.96098435 30
18.488174 -5.8799119 0.97966361 3.5
24.567255 -5.8167839 0.89088249 3
24.9778 -5.8038359 0.91493881 14
25.131874 -5.8117757 0.92343366 24
25.208424 -5.8034649 0.92796922 22
25.571781 -5.8127708 0.9477098 16.5
25.695982 -5.8059502 0.95460522 21.25
25.902443 -5.9058466 0.93068022 52.619049
28.143459 -5.8916216 0.88548493 49.133335
35.762085 -5.8406539 0.91363657 27.5
35.836178 -5.8655224 0.91879469 22.833334
46.071968 -5.834517 0.81547868 2
47.496735 -5.9222455 0.95627701 20.5
7.7873449 -5.6691132 0.91355211 16.799999
7.841126 -5.6639013 0.94911492 18
9.581398 -5.7162542 0.97019786 30
9.632575 -5.7016554 0.87259108 25.142857
18.162811 -5.7206936 0.99744105 30
18.233324 -5.7251639 0.997334 30
18.466885 -5.6932459 0.87734163 3.8
24.490492 -5.7143378 0.95354754 24.466667
24.696846 -5.7444034 0.98755431 24.777779
24.886988 -5.7340741 0.96576488 25.666666
25.067177 -5.7528329 0.94831461 18.875
25.295486 -5.7082305 0.99963933 30
25.474079 -5.7877378 0.94314295 23
25.685455 -5.7604713 0.95544195 9.333333
25.896421 -5.6928172 0.85966182 36.666668
28.149908 -5.711751 0.90445852 54.400002
29.132679 -5.6323214 0.86210811 1
35.724678 -5.7156329 0.8982448 16.333334
35.841595 -5.6963587 0.85782415 24.222221
45.993538 -5.7863913 0.82315826 2
46.122864 -5.7938743 0.82268298 2
47.478203 -5.6909871 0.82012761 2
7.7878499 -5.5170155 0.95492715 11
7.8185329 -5.4985271 0.91992199 17
9.586174 -5.5321693 0.97506452 29
9.6367254 -5.4897885 0.87556314 26
18.167877 -5.4884496 0.80499858 29
18.24081 -5.4634814 0.80529368 28.5
18.435865 -5.5681758 0.90086263 5
24.491545 -5.4752169 0.87558675 25.052631
24.705635 -5.4470239 0.83432096 18.24
24.894787 -5.4551182 0.83542562 17.344828
25.099014 -5.4550834 0.84142673 17.464285
25.274296 -5.4746761 0.85512483 15.2
25.472698 -5.450047 0.85892248 12.5
25.716476 -5.4733205 0.90040302 14
25.867847 -5.4761558 0.8623848 16.5
28.174721 -5.508194 0.9676159 26.25
28.285295 -5.5033169 0.8856833 14.666667
28.498861 -5.5093169 0.8591947 15.833333
28.702784 -5.5253577 0.9024629 15.416667
28.903147 -5.5007544 0.90654898 13.45
29.097494 -5.5121665 0.88506937 16.235294
29.292025 -5.5031896 0.87425929 18.75
29.508301 -5.4988017 0.89396667 17.26923
29.615496 -5.4673119 0.89951086 29.5
35.774498 -5.5220156 0.94706035 25
35.845684 -5.4952607 0.85779124 26.142857
47.386086 -5.4560356 0.86267596 3
47.5135 -5.5157409 0.84825963 3.3333333
7.7864118 -5.2926788 0.89352542 10
7.8176799 -5.3183141 0.93154907 20.5
9.5864573 -5.3015246 0.98118448 33.666668
9.6362715 -5.300426 0.89171153 25.142857
11.729213 -5.229322 0.90065259 83.849998
11.903139 -5.2284222 0.89441681 88.275864
12.087987 -5.2259722 0.96296072 96.928574
12.303121 -5.2224073 0.98702431 92.214287
12.489759 -5.2329059 0.98311752 91.384613
18.172852 -5.3202724 0.81414765 28.333334
18.236734 -5.2793164 0.81536895 30.666666
24.463837 -5.3040299 0.85700572 41.162163
24.728588 -5.3941069 0.80339777 13.75
24.894785 -5.3968525 0.81058359 21
25.110668 -5.3979015 0.81988418 22
25.317465 -5.3988514 0.82850772 11
25.788971 -5.3526955 0.97343379 2
28.087931 -5.317081 0.88915467 1.5
29.560028 -5.2863274 0.88460743 21.200001
29.610727 -5.2803059 0.91590905 41.25
35.84972 -5.3536539 0.85683864 26
47.393394 -5.2858057 0.89102846 4
47.542374 -5.3262262 0.87887824 9
7.7882557 -5.0868235 0.93575573 13
7.8193536 -5.1003494 0.93062401 20.111111
9.5942993 -5.1078978 0.98602521 36
9.6591377 -5.1084819 0.90979141 43.875
9.9212275 -5.1041198 0.87615514 97.333336
10.081863 -5.1198931 0.88626575 98.8125
10.291962 -5.1517978 0.91662586 97.5
10.434811 -5.1573982 0.91994524 100
11.526055 -5.1735497 0.9343757 85
11.712768 -5.1614294 0.90570849 91.85714
11.910321 -5.1571641 0.89994889 93.839996
12.099424 -5.1539192 0.91618121 92.19355
12.282166 -5.1798964 0.94822115 86
12.476062 -5.1941495 0.97127688 81.800003
12.61613 -5.1958656 0.97639871 82
18.168154 -5.1028199 0.82604116 31.333334
18.224854 -5.0840888 0.87471944 38.333332
24.464722 -5.0998802 0.84412748 64.125
25.942057 -5.0155339 0.80335593 1
26.07757 -5.0906577 0.8428731 1.3333334
26.228439 -5.1173072 0.81985927 1
27.935463 -5.1513152 0.87982887 2
29.595224 -5.1384296 0.93839717 53.666668
29.614649 -5.0810547 0.91282672 55
47.471577 -5.1709204 0.90740848 8
7.7926097 -4.8822207 0.94164449 16
7.8223438 -4.9002066 0.93126845 13.333333
