# .PCD v0.7 - Point Cloud Data file format
VERSION 0.7
FIELDS x y z intensity
SIZE 4 4 4 4
TYPE F F F F
COUNT 1 1 1 1
WIDTH 1222
HEIGHT 1
VIEWPOINT 0 0 0 1 0 0 0
POINTS 1222
DATA ascii
1.0901781 -22.758673 0.095574968 2
1.2541202 -22.75378 0.10465419 2
1.7706665 -22.77566 0.058076262 2
1.8778477 -22.77508 0.053144574 2
2.1069791 -22.736773 0.05005303 2
2.2365329 -22.730848 0.040612996 2
3.8538108 -22.709139 0.14099832 82.662651
-1.5891922 -22.502522 0.15905823 100
0.17292488 -22.556225 0.16571164 2
0.20694125 -22.588989 0.16101754 2
0.70490426 -22.419088 0.075301588 1.7058823
0.90390807 -22.442274 0.073490329 1.9523809
1.1012027 -22.444382 0.072924003 1.7857143
1.2987245 -22.449171 0.070456982 1.9230769
1.499409 -22.444185 0.06778156 1.7586207
1.6946132 -22.445261 0.063055106 1.2727273
1.8902758 -22.422577 0.062317275 1.5882353
2.0817842 -22.409813 0.0547719 3
3.8490138 -22.49947 0.11819263 83.75
-1.6130217 -22.255522 0.18727735 98.199997
-1.5927398 -22.300308 0.15191621 100
0.30023816 -22.276396 0.088296212 2.9200001
0.50918823 -22.331652 0.082498364 1.8666667
0.69856125 -22.298706 0.081096224 1.1785715
0.88211989 -22.314528 0.079752423 1.6086956
1.1010424 -22.271355 0.083869487 1.0689656
1.2828851 -22.276054 0.079007953 1
1.5131849 -22.257862 0.079852723 1
1.7240726 -22.301811 0.062025521 1.3333334
1.9000909 -22.30299 0.054933239 1.1333333
2.1031957 -22.319798 0.053059496 1.7
2.2686183 -22.323597 0.056352012 1.6315789
3.8426566 -22.290195 0.12305796 92.121948
6.3042116 -22.264074 0.023199886 5
6.4981542 -22.237242 0.17409727 6
6.6157999 -22.213842 0.155536 4
-1.6309853 -22.086384 0.15923394 87.75676
-1.5953363 -22.103394 0.14169693 93.333336
0.25610387 -22.073692 0.11925456 6.7777777
0.52986449 -22.11867 0.11425262 1.1111112
0.71238077 -22.140537 0.10730971 1
0.87784857 -22.146376 0.098292172 1
1.0972116 -22.146944 0.089675412 1
1.2972307 -22.142519 0.087178513 1
1.4977748 -22.132559 0.083803542 1
1.7480797 -22.139704 0.083619997 1
1.8733164 -22.139875 0.081749097 1
2.0891352 -22.150469 0.077741802 1
3.8730397 -22.110094 0.12884802 81.377052
5.8587127 -22.05809 0.11043799 8.8000002
6.2367606 -22.050308 0.066195428 4
-3.1163499 -21.805996 0.11760026 6
-1.6551616 -21.89986 0.10210154 64.675674
0.24675478 -21.904112 0.1509067 9.909091
0.73028374 -21.854383 0.085239969 2
0.967933 -21.862591 0.049641311 2
1.1748943 -21.887409 0.043282926 2
1.783565 -21.801529 0.03931433 2
1.8579264 -21.8703 0.088779986 2
3.9409816 -21.903095 0.092410259 78.430382
5.6906676 -21.852409 0.13450964 9.4444447
5.846765 -21.927185 0.14788683 10
6.3613186 -21.847406 0.02929155 6
9.6222 -21.849358 0.061567008 10
-4.1389165 -21.617201 0.08949475 4.75
-3.2589128 -21.726463 0.086206317 1
-3.1071641 -21.779984 0.081872329 4
-1.6541198 -21.712927 0.034153197 12.488372
-1.5971153 -21.658438 0.032623209 10.6
0.23868372 -21.71036 0.17643526 7.7692308
0.73389739 -21.709341 0.11869928 2
0.84635305 -21.723902 0.13210338 2
1.0644525 -21.730362 0.129262 2
1.7722536 -21.725958 0.093832314 2
1.8281963 -21.634201 0.11246856 2
3.9396853 -21.707306 0.096400328 56.877552
6.5502148 -21.757534 0.035802007 14
6.6879644 -21.651115 0.19846839 4
7.0525513 -21.753281 0.078947783 4
-5.0053706 -21.561485 0.078563154 38
-4.9109879 -21.473343 0.088124573 21
-4.1541085 -21.578049 0.056379169 3
-1.6723011 -21.50934 0.097019024 47.795456
-1.57231 -21.499533 0.01202151 7.9047618
0.23210394 -21.529848 0.19057104 6.75
0.73071629 -21.433268 0.0987086 1.3333334
0.90548539 -21.444006 0.096831948 1.1818181
1.106348 -21.443069 0.093571104 1.8333334
1.3001356 -21.457914 0.095412709 1.8
1.498678 -21.452953 0.089384533 1.8
1.6936561 -21.434282 0.08997976 1.6666666
1.8701798 -21.439074 0.094893239 2.1666667
3.9528234 -21.501928 0.13398801 11
5.3793082 -21.451504 0.070437491 10.285714
5.4147325 -21.47204 0.12341266 5.1428571
6.5619164 -21.527496 0.027911544 4
6.6948457 -21.556158 0.17328544 14
7.7007127 -21.486399 0.09477862 15
-1.6881375 -21.312572 0.092351273 51.758621
-1.587599 -21.39209 0.0018153787 11
0.3010051 -21.30599 0.097851567 4.448276
0.47411433 -21.304657 0.087197281 1.3333334
0.72016835 -21.297873 0.073647253 1.2307693
0.89443129 -21.31879 0.072074063 1.1176471
1.1016233 -21.310049 0.070899233 1.972973
1.2931514 -21.330818 0.067500748 2.0294118
1.4920565 -21.319794 0.060829066 1.6857142
1.6958764 -21.314444 0.060925063 1.7142857
1.9067583 -21.320446 0.073517196 2.3043478
2.0334563 -21.324751 0.07837005 2.8181818
3.9344318 -21.320492 0.14656834 49
4.0333977 -21.320383 0.1577397 1
4.3582802 -21.284567 0.16012549 1
4.5398755 -21.284643 0.095638141 1.8571428
4.6644235 -21.259476 0.18972845 1
5.2758031 -21.305222 0.11241293 27.52174
5.5165725 -21.360752 0.10838266 1
5.8874512 -21.21423 0.073478639 3
6.3931618 -21.25684 0.10754985 1
6.4351578 -21.260059 0.10068808 1
7.6927772 -21.30068 0.11543383 18
0.29326707 -21.115038 0.10318462 4.0833335
0.47617266 -21.120438 0.097737551 1
0.70704621 -21.125557 0.088240065 1
0.90096748 -21.141361 0.086313657 1
1.0932103 -21.145327 0.077323444 1
1.3010088 -21.14757 0.073366493 1
1.499738 -21.14584 0.068084978 1
1.7233287 -21.115294 0.06324026 1
1.9170073 -21.115976 0.052609548 1.2222222
2.0182691 -21.07785 0.077555463 7.125
3.0886562 -21.014999 0.038925886 20.5
3.9028456 -21.092514 0.17557611 98.75
4.4450188 -21.19453 0.17903769 1
4.9647508 -21.11442 0.10934013 12
5.0434237 -21.107019 0.091925904 12.8
5.276453 -21.191536 0.11267146 1
5.5274558 -21.113565 0.083658338 1
5.8814025 -21.184166 0.18780813 2
6.3644567 -21.145216 0.10416349 1
6.4468088 -21.178892 0.092924893 1
7.0744791 -21.112431 0.19085848 6
7.2566261 -21.052485 0.074127957 12.8
7.5764027 -21.167231 0.051564157 23
7.6886158 -21.196602 0.0359869 23
0.21360511 -20.938599 0.17355077 19.166666
0.77076828 -20.850574 0.0031476617 2
1.9988239 -20.984371 0.070922971 7
2.0197043 -20.901756 0.1366453 13.3125
3.1097829 -20.995377 0.17229055 1
3.900985 -20.98905 0.18002068 77.800003
4.5591497 -20.909 0.12544531 1
5.3508606 -20.942524 0.073102459 20.75
5.421545 -20.938629 0.12438998 20.333334
5.7492709 -20.937195 0.077615157 4.75
5.8699121 -20.929506 0.10508137 5.7777777
6.0079541 -20.928421 0.14574367 6
6.5527072 -20.929764 0.086148828 5.5
6.7417979 -20.895504 0.083911121 17.5
6.9316406 -20.886135 0.14805739 14.666667
7.0942211 -20.87611 0.13696028 6.75
7.257144 -20.920557 0.087081425 12.636364
7.4944177 -20.891851 0.16175964 9
7.682569 -20.915737 0.12061747 5.3333335
7.8829031 -20.858622 0.13927984 10
8.0396347 -20.855967 0.11988729 8
0.6906085 -20.697765 0.052066937 2
0.89499867 -20.677843 0.079597861 2
1.0945387 -20.700596 0.044650018 2
1.3163462 -20.629286 0.076058149 2
1.6982977 -20.608944 0.066504657 2
1.9885254 -20.696619 0.11615258 4
2.0091956 -20.690025 0.13954511 16
0.51148778 -20.454767 0.062258411 1.6956521
0.70624906 -20.468491 0.066937543 1.0416666
0.89959002 -20.482349 0.062404428 1
1.0994437 -20.489182 0.058317687 1.0714285
1.3024249 -20.483496 0.055033416 1
1.5030117 -20.474735 0.050540335 1.1071428
1.6919091 -20.469484 0.036601201 1
1.9143254 -20.431417 0.044087913 3.1500001
2.0070598 -20.508242 0.14440265 15.555555
0.18398221 -20.232979 0.10933077 24.6
0.34323898 -20.261932 0.11171756 30.1875
0.4587346 -20.324348 0.091072731 4.3636365
0.71428955 -20.247824 0.058378957 1
0.90445369 -20.213129 0.041605566 1
1.0937864 -20.209595 0.042196251 1
1.3105035 -20.20598 0.037768472 1
1.5369468 -20.23641 0.028468052 1.8333334
1.7074978 -20.351021 0.058322549 1.125
1.9423987 -20.323818 0.080620892 5.9473686
2.0049875 -20.303965 0.062162597 3.6666667
5.6995344 -20.366493 0.0011134744 2
0.17743558 -20.092215 0.13376461 16.25
0.32070914 -20.148262 0.12550962 8.5
0.51043034 -20.073961 0.10764879 1
0.7178278 -20.117447 0.079709545 1
0.89856356 -20.119633 0.084946178 1
1.1016252 -20.12645 0.081116818 1
1.3002793 -20.138391 0.070841447 1
1.4976823 -20.137194 0.062177453 1
1.7043468 -20.105425 0.062293537 1.0238096
1.927323 -20.083042 0.065311506 3.8490567
0.17355189 -19.922571 0.17223565 15.428572
0.59755576 -19.999952 0.13835609 1
0.65875214 -19.989994 0.14020187 1
1.9772478 -19.904964 0.12200407 12.666667
2.0080509 -19.970947 0.097585477 4.6666665
7.8945932 -19.985744 0.16916823 15
-3.8715029 -19.700161 0.12940024 2
0.73148531 -19.666975 0.050760228 2
0.95969218 -19.723341 0.03944264 2
1.0941013 -19.694344 0.040288165 2
1.2653069 -19.676306 0.038378555 2
1.6666644 -19.672638 0.026419967 2
1.9735563 -19.684526 0.13407373 14.105263
0.71388853 -19.442671 0.054188043 2.7826087
0.90622538 -19.466185 0.057967752 2.3870969
1.1078964 -19.467531 0.058579937 2.2352941
1.2894568 -19.466398 0.039703522 2.2608695
1.4988136 -19.45863 0.039823368 1.8846154
1.6911336 -19.446806 0.03987731 2.3636363
1.9224544 -19.455664 0.077058382 7.5666666
0.52202702 -19.325527 0.09999457 2
0.72746515 -19.278795 0.051873442 1.9583334
0.90147668 -19.290569 0.041563559 2.0869565
1.0869917 -19.273323 0.035675112 1.7894737
1.2975574 -19.292683 0.037455894 1.6818181
1.4980958 -19.286068 0.029543517 1.7391304
1.6795273 -19.309237 0.032186989 2.5384614
1.9266468 -19.31871 0.08098872 8.1999998
0.73433125 -19.101564 0.08838702 1
0.90147913 -19.115055 0.090268858 1
1.1041034 -19.120298 0.089309901 1
1.3083555 -19.120121 0.085322551 1
1.4989308 -19.121881 0.07794863 1.1428572
1.6861086 -19.10317 0.071134306 1.2352941
1.9108568 -19.10273 0.072442234 4.6904764
0.77769512 -18.882423 0.093461454 2
0.92458987 -18.893272 0.089750111 2
1.1455098 -18.869377 0.08825779 2
1.5084845 -18.857046 0.080361187 2
1.7062128 -18.842941 0.075788856 2
1.9509388 -18.874977 0.1060118 10.619047
1.9454737 -18.687916 0.14590491 15.705882
0.76232481 -18.453577 0.031793255 1
0.89975977 -18.481274 0.025417689 1
1.1039153 -18.49157 0.021073798 1
1.2969978 -18.477043 0.020145953 1
1.4950041 -18.461611 0.01679405 1
1.7010533 -18.428694 0.014530357 1.4444444
1.9090325 -18.461214 0.080882072 8.818182
7.2222281 -18.490654 0.047746897 9
7.4518561 -18.517418 0.019498408 15
0.54516131 -18.372932 0.015595645 3
0.73598778 -18.325199 0.11393291 10.086957
0.89814907 -18.362415 0.099282414 1
1.0995563 -18.371735 0.096649185 1
1.3008122 -18.369225 0.094145134 1
1.4918751 -18.365318 0.089651823 1.2222222
1.7058725 -18.336285 0.087446772 1
1.901648 -18.30999 0.082503647 5.9000001
-2.7387562 -18.072361 0.15490347 4
0.73983264 -18.105635 0.077049814 5.625
0.90013999 -18.094721 0.049491562 2.4285715
1.0934821 -18.109583 0.044405315 1
1.2749195 -18.098244 0.043492589 1
1.4996053 -18.095478 0.036755703 1
1.7290348 -18.057335 0.032617487 1
1.9080576 -18.086658 0.082419552 9.166667
3.7400537 -18.121979 0.046486378 2
5.4526939 -18.011282 0.11581469 3
11.28017 -18.009258 0.0018160343 8
-2.0151706 -17.84259 0.10871279 17.75
-1.9960629 -17.814869 0.17354995 6
0.71443355 -17.923841 0.10517991 8.2222223
0.88106322 -17.954573 0.072104752 1.3529412
1.0958501 -17.955038 0.061832666 1.4166666
1.3028589 -17.949797 0.061922163 1.3571428
1.5093534 -17.95479 0.064086251 1.2352941
1.7035365 -17.926781 0.06526944 1.1818181
1.9044858 -17.907909 0.11145777 11.695652
4.3257132 -17.968939 0.091768384 11
5.4472065 -17.962395 0.11968541 3
11.257685 -17.908388 0.0045586824 8
-3.1972108 -17.619003 0.16726142 4
-2.0267918 -17.746962 0.13881823 17
0.6865139 -17.67186 0.071929321 3.0999999
1.0949271 -17.726727 0.057311565 2
1.5003023 -17.664919 0.046680719 2
1.7502925 -17.618935 0.0394786 2
1.9033483 -17.688221 0.10839798 13.066667
4.3089681 -17.611183 0.053052068 4
5.4713693 -17.728201 0.19686526 20
5.7282982 -17.746811 0.16981679 4
7.1722188 -17.735863 0.078692049 8
7.2161069 -17.725636 0.048029482 3
11.255355 -17.722382 0.010411114 8
-3.227628 -17.545195 0.17185086 4
0.48943251 -17.487627 0.040432706 2
0.68427229 -17.497629 0.16587964 1.2
1.9114871 -17.494715 0.11519781 12.384615
11.255817 -17.532972 0.016431689 8
-4.2571192 -17.248098 0.14614488 2.3333333
-3.4756808 -17.274982 0.17614201 3
-3.399899 -17.372198 0.173877 4
-1.6110337 -17.201008 0.096966565 2
-1.4714849 -17.232782 0.11064716 10.5
0.39262539 -17.202343 0.018531621 2
0.49084163 -17.272507 0.05181722 1.3333334
0.70874244 -17.301802 0.054409515 1.5
0.89391041 -17.312227 0.036075242 1.2222222
1.0969841 -17.340961 0.047549613 1.2
1.295908 -17.351891 0.046751235 1.2222222
1.4926705 -17.334799 0.042540882 1.4444444
1.7054901 -17.3102 0.036566585 1.8
1.8912053 -17.312664 0.10904621 12
3.8707159 -17.231882 0.011633158 1
11.24138 -17.308205 0.023283958 8
-4.2969708 -17.178894 0.14630894 2
-3.8861585 -17.054031 0.19873756 2
-3.5547371 -17.156017 0.17973518 4
-2.8293543 -17.0438 0.11505648 3
-1.5103885 -17.130184 0.11686762 5.6666665
0.47619024 -17.086908 0.058462083 1
0.72355276 -17.108671 0.069724344 1
0.900787 -17.106812 0.068961568 1
1.0956906 -17.1077 0.063709117 1
1.3007616 -17.092682 0.059050974 1
1.497463 -17.10955 0.058607697 1
1.7105043 -17.102001 0.044477586 1
1.8803532 -17.100969 0.097289406 10.391304
3.4068558 -17.057451 0.14484273 4.6666665
4.2461905 -17.074585 0.080914751 7.25
4.4457645 -17.026054 0.063405447 11.833333
5.3834186 -17.08716 0.044343252 17.666666
6.748467 -17.172514 0.12721199 4
11.1848 -17.182222 0.026164114 8
-4.2151809 -16.971291 0.16828674 2
-4.1844153 -16.987741 0.17066509 4
-2.8485153 -16.962927 0.13051188 1.8
-2.7464502 -16.851868 0.1915971 3
-2.2289681 -16.927263 0.17485455 21
-2.1370571 -16.933401 0.15858071 13.666667
-1.9922196 -16.934292 0.12538981 3
0.52891028 -16.894543 0.10764094 2.25
0.65887088 -16.890238 0.12232814 2.8235295
0.86442548 -16.994303 0.084517024 1
1.3725456 -16.996109 0.072230816 1
1.5321016 -16.981401 0.068683945 1
1.7075098 -16.977146 0.061169021 1
1.8785012 -16.929789 0.076237872 7.9411764
-2.3462658 -16.600164 0.13590115 3
-1.8674746 -16.733902 0.18701655 3
0.38108698 -16.739126 0.19196697 1
0.52935886 -16.77594 0.1695791 3.6153846
0.64699018 -16.756458 0.13640136 5.3666668
0.87727439 -16.74888 0.026627958 4
1.0633204 -16.742718 0.0014168421 2
1.8780615 -16.702286 0.11688197 13.8125
3.2105174 -16.660629 0.11140111 10
-3.2089911 -16.435307 0.1244162 3
-3.1455977 -16.49951 0.13159119 3
-2.4656901 -16.480257 0.13837339 3
-2.2705646 -16.471886 0.14690018 2.5714285
-2.1833198 -16.427443 0.096586704 1
0.56503105 -16.575621 0.030117631 2
0.71847922 -16.445824 0.028821155 1.25
0.92739505 -16.435867 0.025173426 1.1666666
1.0998176 -16.43124 0.021001771 1.125
1.337216 -16.440086 0.017135859 1.3333334
1.5464025 -16.479128 0.024867276 1.6666666
1.7188232 -16.50843 0.019646242 2
1.8734448 -16.50079 0.10783491 14.9
3.7585354 -16.477905 0.1563766 2
4.181632 -16.532032 0.1322021 6.75
-3.2596779 -16.337568 0.12559228 3
-3.0931971 -16.310089 0.19652779 3
-2.6550832 -16.271048 0.1424762 3
-2.563632 -16.357779 0.14253169 3
-2.2889876 -16.339373 0.16642639 2.4000001
-2.1138489 -16.271856 0.16504268 1
0.55273485 -16.241508 0.049516607 1.8
0.72951996 -16.276926 0.049027525 1.8
0.89652717 -16.286898 0.050340638 1.7222222
1.1019181 -16.284781 0.046567488 1.2857143
1.2999684 -16.290766 0.0405843 1.7368422
1.5061066 -16.286974 0.038019031 1.7407408
1.6954527 -16.269882 0.042774726 2.7931035
1.861639 -16.28842 0.10776479 10.714286
3.0203226 -16.355616 0.10136344 6.3333335
3.5940657 -16.218102 0.00083059072 12
4.4374771 -16.331999 0.041082691 30.5
-3.150748 -16.185759 0.19860315 2
-2.4920454 -16.037062 0.095975138 1
-1.8086083 -16.001247 0.064119101 3
-1.7873399 -16.029398 0.063471049 2
0.38471776 -16.01832 0.058301866 42
0.5466277 -16.113235 0.07369148 2.2352941
0.70082796 -16.092875 0.080142438 1.5238096
0.90470988 -16.129007 0.06419602 1.6666666
1.103407 -16.124422 0.060618587 1.6956521
1.3007154 -16.120399 0.055448078 1.7142857
1.4982508 -16.089033 0.05080992 1.65
1.7004665 -16.121655 0.033633593 1.5
1.851789 -16.086239 0.084731489 8
3.8380003 -16.067087 0.14876217 7.6666665
4.1903944 -16.136559 0.1199638 15
-2.6064799 -15.863064 0.095501482 1
-2.5187247 -15.919177 0.11373466 1
-1.811029 -15.975771 0.06758821 3
-1.7228482 -15.915798 0.11570309 1.75
0.35153535 -15.953953 0.17070445 5.5
0.54084259 -15.886056 0.156385 13.181818
0.6888687 -15.935732 0.12675484 4.4210525
1.6952584 -15.982504 0.034111187 1
1.8524225 -15.882821 0.093343355 12.2
-2.6154425 -15.787257 0.10163093 1
0.52886838 -15.68212 0.1300441 16.307692
1.8442535 -15.680277 0.11722981 15.538462
0.33255687 -15.458791 0.059640486 9.833333
0.47699049 -15.506152 0.1412752 16.421053
0.75918454 -15.404599 0.059137419 1.5
0.9040215 -15.411508 0.056678992 1.3333334
1.0817398 -15.408673 0.054484271 1
1.2705177 -15.413434 0.048196457 1
1.4364918 -15.423132 0.039552189 1
1.7845306 -15.443125 0.015945673 3
1.8423331 -15.504322 0.14550114 19.666666
0.13810425 -15.256162 0.022267142 10.666667
0.34276581 -15.326423 0.12271073 11.866667
0.475961 -15.275043 0.11227402 10.92
0.72917157 -15.291393 0.042251855 2.4736843
0.89846992 -15.267748 0.023824951 1.9047619
1.1042137 -15.279905 0.025131922 1.6
1.287374 -15.361668 0.046409167 1.1333333
1.538043 -15.370034 0.046818163 1.3333334
1.696317 -15.344989 0.043599017 1.9411764
1.8301919 -15.297264 0.08945933 11.5
0.12325301 -15.094521 0.13189058 23.428572
0.29826391 -15.0876 0.098679036 22.891304
0.48239326 -15.084583 0.091174699 6.3703704
0.71471012 -15.114313 0.051749151 2.1875
0.90873832 -15.14109 0.044281881 1.6470588
1.1056732 -15.140027 0.049852964 1.5789474
1.3028783 -15.133343 0.043900065 1.6666666
1.5018994 -15.108851 0.037045777 1.7142857
1.7017201 -15.110429 0.056645762 1.9166666
1.8237708 -15.101748 0.10769468 12.571428
3.6602561 -15.083086 0.15090132 1
-1.83289 -14.919254 0.15746181 63.888889
-1.6834009 -14.919887 0.13815024 21.052631
-1.494913 -14.968968 0.15961608 66.466667
-1.3166941 -14.964355 0.18802203 70.916664
-1.0549966 -14.8901 0.098146677 46.473682
-0.88469183 -14.913527 0.10157534 44.857143
-0.70437193 -14.919966 0.11249204 54.267857
-0.52320021 -14.908651 0.097349599 71.727272
-0.29103863 -14.891341 0.11094178 34.5
-0.07948339 -14.902079 0.078548044 21.0625
0.11354509 -14.892505 0.12888297 13.823529
0.2864117 -14.936579 0.12054069 22.125
0.50813073 -14.954398 0.12867981 3.2682927
0.66380143 -14.962128 0.10723663 2.3870969
0.89899302 -14.97526 0.020192087 1
1.088652 -14.9385 0.025238726 1.2222222
1.3042264 -14.94067 0.015011351 1
1.5022422 -14.908267 0.012941738 1
1.7041423 -14.916731 0.022653233 7.6666665
1.9033239 -14.861167 0.089609474 62.265305
2.0993738 -14.849628 0.10309645 73.261192
2.2922626 -14.842259 0.1165984 80.688683
2.4923687 -14.837253 0.10561229 81.027023
2.6958358 -14.827109 0.088711709 83.058823
2.8988581 -14.821032 0.12391651 77.474579
3.0932703 -14.816583 0.12371533 67.271187
3.2970347 -14.812854 0.12090682 76.037041
3.513927 -14.819536 0.12985629 69.26667
3.6287732 -14.808184 0.099329829 94.5
-1.839463 -14.690362 0.14177607 22.857143
-1.7709632 -14.769894 0.15037996 6
-1.0669254 -14.799285 0.025588155 7
-0.9123264 -14.747131 0.10904993 6.4444447
-0.45315373 -14.710467 0.085574776 14.5
-0.31561181 -14.689042 0.13424587 12.333333
-0.073388644 -14.678046 0.1640559 45.964287
0.10287552 -14.653466 0.1426827 31.962963
0.22279455 -14.646817 0.1266062 15.5
1.7095041 -14.739556 0.0348139 2.3333333
2.6945977 -14.795363 0.15483648 85
2.9116797 -14.796389 0.12808052 79
3.1242037 -14.794789 0.13405548 79.25
3.307591 -14.794107 0.10828543 75.85714
3.5053725 -14.792572 0.10612251 69.777779
3.6392891 -14.711018 0.12846892 89.976189
-1.8487276 -14.503246 0.16639608 38.055557
-0.42149767 -14.585948 0.11854241 66
-0.27192107 -14.552794 0.12889443 64.777779
-0.095035523 -14.539873 0.12346037 51.568966
0.1049779 -14.531251 0.1088106 45.333332
0.24378717 -14.494301 0.076112926 27.52174
0.50245845 -14.44663 0.003615771 2.1428571
0.66717798 -14.457577 0.0022488039 1.3333334
0.81238478 -14.454811 0.0024839044 1
1.5495648 -14.469376 0.041138411 4
1.7035284 -14.50469 0.037320375 4
3.6329854 -14.506516 0.13954462 84.861115
-1.8545796 -14.31341 0.18754141 64.428574
-0.2955541 -14.298635 0.020531714 6
-0.12077061 -14.285411 0.042822462 4.1666665
0.11315854 -14.371353 0.010204781 3.6363637
0.34290221 -14.314017 0.030426038 2
0.50546622 -14.333979 0.034340244 1.7692307
0.69940674 -14.31214 0.03518229 2.2307692
0.88943487 -14.302317 0.030132331 1.375
1.0925655 -14.320374 0.023818025 1.25
1.2946463 -14.306985 0.021421723 1.4444444
1.4940193 -14.273544 0.016378546 2.2
1.6518167 -14.252253 0.0094286203 2.5999999
1.8159182 -14.205259 0.0060004592 3
3.6283064 -14.304383 0.14650247 86.814812
-1.8530036 -14.068162 0.12127496 41.5
-0.42437142 -14.03382 0.084284931 7
-0.32722151 -14.086474 0.07790105 5
-0.090925157 -14.096361 0.022590369 1.5
0.070015132 -14.030079 0.0045623183 1
0.49597797 -14.018534 0.0043513775 1
0.70104277 -14.017473 0.0036129355 1
0.97553611 -14.081648 0.021964669 1.5
1.2973484 -14.169547 0.035311624 2
1.5358682 -14.14872 0.032454532 2
1.6809311 -14.120644 0.032091152 2
1.9098719 -14.122192 0.016744392 4.090909
2.0286946 -14.080362 0.016339839 7.5
3.621839 -14.10136 0.17439823 86.300003
-1.8736786 -13.941304 0.14130569 29.714285
-1.6800153 -13.847752 0.14201681 4.75
-1.5533392 -13.803166 0.13580084 10
-0.24862552 -13.873377 0.019087872 1
-0.11388989 -13.903456 0.018140197 1.3125
0.11830308 -13.94593 0.015046149 2.6666667
0.27844453 -13.952477 0.016180277 1
0.51472747 -13.987493 0.010531068 1
0.87768942 -13.981747 0.0083953142 1
1.1051514 -13.985849 0.0022637011 1
1.288492 -13.959555 0.0014215946 1
3.5746713 -13.849753 0.18673491 18
3.6119943 -13.916952 0.1699308 85.125
-1.6246939 -13.799142 0.11948651 21
-1.4735349 -13.687485 0.13261577 40.375
-0.059772968 -13.641252 0.049615204 1.1666666
0.085352905 -13.675422 0.042464674 1.25
0.33088738 -13.732397 0.05134039 1
0.51968551 -13.750437 0.050228775 1
0.70603716 -13.745562 0.051695224 1
0.90310264 -13.740469 0.051944282 1
1.0987691 -13.725479 0.052489363 1
1.3020325 -13.712534 0.051221225 1
1.5091918 -13.680696 0.051518258 1
1.6919552 -13.636386 0.05316551 1.1666666
1.8289559 -13.611494 0.052297086 2
3.6030686 -13.768281 0.18796492 99
-1.6436534 -13.564121 0.19807404 31
-1.4767499 -13.483994 0.14956318 8.8999996
0.4769792 -13.531297 0.026384175 2
0.7366069 -13.517642 0.024950823 2
0.88600123 -13.543135 0.019161493 2
1.0945718 -13.476922 0.023430109 2
1.2279401 -13.450701 0.023658425 2
1.7534091 -13.593174 0.058130115 1
1.9241941 -13.571203 0.054966487 1
3.3835025 -13.463305 0.10419402 1.5
3.5946419 -13.402578 0.16335142 15
3.6112459 -13.446576 0.10056157 44.857143
-1.4973906 -13.338911 0.16668984 1.1
-0.038428545 -13.224477 0.0062064528 3
0.053815395 -13.247837 0.0051260293 2.6666667
0.25022426 -13.260501 0.0058206716 1.6666666
0.5196467 -13.238844 0.0082415938 1
0.69491953 -13.25281 0.0052911704 1.2222222
0.89681911 -13.249904 0.0038290157 1.2222222
1.0725483 -13.289299 0.013619602 1.3333334
1.2224375 -13.223099 0.0012311935 1
1.5281472 -13.364307 0.02612558 2
1.641716 -13.350677 0.024105877 2
3.5743914 -13.259562 0.15456799 72.75
3.6232648 -13.314701 0.088443547 20.888889
-0.069937967 -13.104403 0.070571087 6.4000001
0.068636663 -13.147017 0.019375708 1.2857143
1.5285541 -13.027644 0.0024769902 2
3.5963104 -13.088271 0.16638862 95.375
3.6139958 -13.126791 0.15682501 78.800003
4.7804179 -13.048713 0.08932925 12.363636
4.8037496 -13.081023 0.067566365 18
-1.5003843 -12.879351 0.18728417 54.111111
-0.061013047 -12.91644 0.1526784 21
0.535155 -12.82316 0.021942116 1
0.70913255 -12.818846 0.035094932 1
0.897605 -12.822865 0.03410076 1
1.0695652 -12.816058 0.033848464 1
1.3450345 -12.827586 0.02586638 1
1.422586 -12.82621 0.023905197 1
3.5912988 -12.891491 0.14284928 79.454544
3.6015608 -12.867932 0.1554866 82.333336
4.7307529 -12.897326 0.11641315 23.799999
-1.5062275 -12.693546 0.16951962 50.111111
-0.060513489 -12.729132 0.13073315 16.555555
0.52410316 -12.737041 0.034939777 1
0.6880278 -12.750875 0.035118621 1
0.89804536 -12.746799 0.034298092 1
1.1111867 -12.751976 0.036032759 1
1.2746265 -12.740655 0.034690149 1
1.4958519 -12.721541 0.034729701 1
1.6339645 -12.687246 0.043927342 1
3.5852239 -12.676074 0.14949821 86.279999
3.6029606 -12.739283 0.18515697 81
4.7461519 -12.731495 0.10123072 20.299999
4.8628745 -12.63868 0.092656389 22.333334
-1.5100677 -12.51384 0.14022452 11.222222
-0.035513401 -12.440602 0.12511432 10.666667
0.53523004 -12.440539 0.033131003 2
0.72386932 -12.408074 0.032983877 2
0.95658118 -12.416737 0.025345981 2
1.0533757 -12.498005 0.011598349 2
3.5807128 -12.501108 0.14658104 77.849998
3.6024177 -12.53256 0.14645761 74.5
4.8985543 -12.502762 0.096450306 24.044445
-1.5441983 -12.324289 0.11126463 1.875
-0.058799107 -12.371428 0.16181938 15.666667
0.078240171 -12.269757 0.14092217 2.6875
0.31871703 -12.266307 0.12655592 3.2380953
0.51366878 -12.374156 0.068624079 2
0.67381203 -12.302423 0.048159659 2
1.1287409 -12.388 0.02355814 2
1.2307986 -12.330605 0.027506962 2
1.5014729 -12.26814 0.024464635 2
1.7492062 -12.279941 0.14538153 3.5999999
3.5744004 -12.305783 0.11877374 69
3.6132646 -12.397059 0.11721438 2
4.3972945 -12.315784 0.066139996 1
4.4360328 -12.279907 0.1122418 1
4.9290242 -12.296149 0.10935641 28.571428
-0.059713483 -12.085033 0.11246517 10.5
0.10742012 -12.091897 0.097424477 2.2222223
0.31829005 -12.075397 0.12514514 2.0588236
0.50518358 -12.104865 0.029589325 1.4
0.71668184 -12.122772 0.028484866 1.625
0.90009385 -12.12733 0.027659021 1.3157895
1.1014909 -12.114221 0.028478106 3
1.306723 -12.088739 0.029392863 1.9
1.5019197 -12.039048 0.03360064 2.7777777
1.7001781 -12.01687 0.089865237 7.5454545
3.5695045 -12.105318 0.15809122 78.325584
3.6153736 -12.08752 0.10119933 8.666667
3.837173 -12.170175 0.19368267 2
4.9058232 -12.075468 0.095604956 29.450001
-0.061181959 -11.887147 0.11204252 9.454545
0.091541521 -11.865192 0.11336761 1.4054054
0.30052146 -11.896573 0.10767199 2.25
0.50369769 -11.860481 0.023451656 1.4
0.69252104 -11.8598 0.019485954 1
0.90073991 -11.870492 0.015256417 1
1.1044061 -11.851961 0.014075177 1
1.2857713 -11.845956 0.017964939 1
1.490973 -11.842682 0.024678549 1.5
1.7142305 -11.93052 0.087915629 10.551724
3.3236272 -11.986328 0.17670615 53.666668
3.5225146 -11.973588 0.15975615 73.388885
4.1621752 -11.951347 0.11309475 17
4.321197 -11.923007 0.11386802 23.454546
4.5093122 -11.929203 0.10656745 18.9
4.6923127 -11.919631 0.091287106 19.076923
4.9086442 -11.924517 0.1035215 16.6
-0.067571186 -11.716331 0.072771296 10.714286
0.095008679 -11.710258 0.097282022 2.625
0.27909395 -11.728913 0.10784867 4.3863635
0.46839824 -11.787628 0.019822219 1
0.92422611 -11.799523 0.016986728 1
1.3091152 -11.787554 0.011030281 1
1.5059128 -11.730848 0.019449014 1.2
1.7208316 -11.685996 0.082051218 11.32
-0.090662792 -11.514032 0.099677786 21.285715
0.14520496 -11.498975 0.017823061 2
0.28626356 -11.528148 0.011878669 2
0.45427716 -11.557595 0.0050026774 2
0.61109632 -11.563047 0.00090318918 2
1.7184614 -11.510474 0.11229996 16.142857
-0.096446127 -11.322786 0.14345895 27.307692
1.705514 -11.300397 0.13002646 19.789474
-0.021067142 -11.044367 0.0077722967 3.5
0.10475494 -11.031128 0.017503053 3
0.2964744 -11.054174 0.018091911 1.8
0.50334322 -11.075999 0.017656147 2.5999999
0.69959104 -11.097202 0.014475048 2.3333333
0.89631033 -11.10837 0.011066246 1
1.103277 -11.088354 0.012357223 2
1.2998587 -11.074655 0.0096616745 1.6666666
1.4865983 -11.036824 0.01056136 2.7777777
1.6892533 -11.073981 0.088943042 12.722222
-0.037310243 -10.979221 0.022111475 3
0.1176017 -10.902034 0.022557387 1.5714285
0.28493395 -10.89584 0.02015122 1.25
0.50950366 -10.850542 0.031719089 1
0.69462651 -10.87444 0.024575179 1
0.89249998 -10.863524 0.022534478 1
1.0953387 -10.856837 0.017752295 1
1.2746869 -10.852995 0.012326187 1
1.5242287 -10.82891 0.0077107348 1
1.6884494 -10.890974 0.11325762 13.884615
-4.0227427 -10.753465 0.076286077 4
-3.8301845 -10.738621 0.094354331 4
0.15877663 -10.777335 0.051046088 1
0.30295619 -10.792023 0.047499925 1.3333334
0.42797869 -10.795546 0.045473665 1
1.159732 -10.790688 0.027043283 1
1.3126543 -10.786144 0.021432314 1
1.5253168 -10.759302 0.015823672 1
1.6764886 -10.706022 0.069366649 11.95
0.34458423 -10.484034 0.017154068 2
0.49520078 -10.483255 0.013342127 2
0.70663077 -10.475653 0.0080821514 2
0.83228755 -10.456758 0.0064061284 2
1.6787255 -10.503229 0.098825358 16.666666
0.81114936 -10.201748 0.0054962635 1
1.6726035 -10.313436 0.13144761 18.333334
0.18194914 -10.151353 0.012579083 1
0.2983675 -10.170978 0.010677367 1.8
0.50189936 -10.180884 0.011192024 2.7777777
0.69392979 -10.186378 0.010101186 1.2222222
0.91735017 -10.177555 0.0094449744 1
1.0970609 -10.172407 0.0060475534 1
1.29722 -10.148776 0.0040081381 1.6
1.4993948 -10.109898 0.01267378 3.75
1.658708 -10.089046 0.12123154 15.857142
-4.809072 -9.8536348 0.17304069 3
0.27793971 -9.8875933 0.020030927 1.1
0.57127815 -9.8946838 0.018116921 1
0.69641066 -9.922945 0.010044441 1.3125
0.8984291 -9.8985825 0.0097994022 1
1.0984272 -9.8656101 0.0094421469 1
1.3065913 -9.8367691 0.0058866274 1
1.6544877 -9.9014206 0.11092257 13.785714
-4.8015699 -9.63657 0.18869573 3
0.29372361 -9.6315851 0.065724835 1.8571428
0.51528513 -9.6325169 0.011453152 2
0.72310704 -9.6289959 0.0092856288 2
0.9408263 -9.634016 0.006408453 2
1.0219823 -9.6315632 0.0053634644 2
1.3780491 -9.6105585 0.00046885014 2
1.6458963 -9.716692 0.094643019 15.85
0.25229084 -9.4976282 0.11008246 6.7727275
0.46583247 -9.5891371 0.011304587 2
1.3959122 -9.5955296 0.0054293871 2
1.4988189 -9.5725336 0.0050171413 2
1.6382288 -9.4995327 0.068962619 14.65
0.19444549 -9.2954483 0.16566789 2
0.24546658 -9.2496071 0.14163105 5
1.638042 -9.2883596 0.12460212 18.588236
0.26789877 -9.1266623 0.082212888 7.6279068
0.49918658 -9.1381874 0.021772785 1
0.70145953 -9.1448326 0.017733047 1
0.90331066 -9.1520805 0.010935174 1
1.0850921 -9.1449299 0.0058118477 1
1.3091673 -9.1138792 0.001839757 1
1.5419066 -9.0852098 0.066197097 8
1.623678 -9.0901709 0.11887083 15.5
0.19215968 -8.8305664 0.048819661 17.5
0.25162277 -8.8657598 0.067494683 9.333333
0.50332749 -8.9009304 0.006432754 1
0.67641014 -8.8896551 0.0035547416 1
1.6188809 -8.8832588 0.12246019 15.12
-3.6912994 -8.6580801 0.076741576 7.5
-3.4982679 -8.6568918 0.13400632 8.666667
0.19640519 -8.7203178 0.075640105 6.4000001
0.21421145 -8.7825537 0.093111135 20
1.5982704 -8.6097708 0.013191938 3
1.6118561 -8.6885824 0.09366677 17.5625
-3.8857758 -8.4905214 0.077150621 6
-3.6718698 -8.4903755 0.13382599 8
-3.5274839 -8.5339384 0.16592933 9.333333
-2.8220816 -8.5680962 0.050734371 8
-2.6933122 -8.513752 0.05968459 6.5
0.19033748 -8.4640055 0.13101093 14.1
0.21581359 -8.5064507 0.14740236 8
1.5922886 -8.4619217 0.075754024 12.6
1.616493 -8.509449 0.11572116 19.214285
-3.715946 -8.3712835 0.168789 8
0.19525397 -8.2999229 0.065103441 2
0.21104968 -8.2399635 0.16925579 3
1.5956486 -8.2976036 0.12221488 19.692308
1.6022215 -8.3266287 0.16914134 23.5
-3.5852861 -8.1207914 0.16937661 14
0.16385618 -8.1425371 0.12205228 23.681818
0.27944484 -8.0724621 0.075477891 4.7142859
0.53326833 -8.0066271 0.00036785007 1
1.5889 -8.0939388 0.10546542 15.454545
1.6279 -8.138876 0.14796415 19.5
0.3089155 -7.8935223 0.0083779413 1.0769231
0.49866092 -7.9283628 0.01312387 1
0.70111632 -7.9627938 0.0092786448 1
0.90250933 -7.9615474 0.0067228931 1
1.1032519 -7.9459777 0.0052324533 1
1.3038309 -7.9219031 0.0037775806 1
1.5628582 -7.9032397 0.08059144 13.777778
1.6106899 -7.8635597 0.021454722 3.5
-2.7515621 -7.6141577 0.056431293 10.5
1.5763905 -7.7097096 0.10234995 18.307692
1.6208217 -7.6509018 0.17536747 18
-2.8828485 -7.4851985 0.05931871 9
-2.697906 -7.4827986 0.10129306 9.8000002
-2.5773928 -7.4666648 0.12966657 8.5
-2.2198241 -7.4278779 0.092329443 15
1.5720391 -7.5020261 0.10465962 16.277779
1.6110165 -7.5837631 0.075561762 17
3.3486669 -7.4909759 0.15933548 21.666666
-3.0261948 -7.3352861 0.062378228 7
-2.9209454 -7.3175035 0.076015554 3.3333333
1.5683194 -7.3083696 0.12140145 19.714285
3.3451059 -7.3323493 0.15588801 22.333334
3.518405 -7.3528986 0.11241284 30.142857
3.6585383 -7.3443627 0.14101528 23.076923
0.34173337 -7.1010075 0.005336572 1.1818181
0.47516632 -7.0975366 0.0047805309 1
0.68881989 -7.0513382 0.00233832 2
0.93182892 -7.0446091 0.0026374161 2
1.0645223 -7.0282516 0.0039853575 2
1.2213173 -7.0387335 0.001090765 2
1.5587763 -7.1059685 0.12579006 18.222221
1.6300983 -7.0560102 0.048199177 16
0.35231206 -6.8668008 0.043497629 3.2
0.50122118 -6.9269786 0.011111533 2
0.69294518 -6.9579034 0.0078597311 2
0.86845982 -6.9122396 0.0035573915 2
1.0424681 -6.8928409 0.00058157742 2
1.5470202 -6.8949656 0.10605146 14.666667
0.33179012 -6.7226472 0.088611342 20
1.5466508 -6.7164087 0.098116018 14.85
3.2655783 -6.6540165 0.14532866 16.333334
-0.22700155 -6.4017262 0.090935528 100
-0.13635825 -6.4028258 0.092508353 92.333336
0.32831731 -6.4723935 0.11807612 37.416668
1.5353736 -6.5037036 0.083503932 16.818182
1.6073469 -6.5034642 0.11655205 16
3.256958 -6.4950137 0.16781648 16.714285
-0.24862519 -6.3368902 0.14235674 70.551018
-0.095782816 -6.365799 0.14478087 69.129036
0.1025835 -6.363625 0.13859934 58.426968
0.26190639 -6.3637371 0.14538452 76.403847
1.5394232 -6.3129201 0.12134948 18.615385
3.245616 -6.3084979 0.18698192 16.818182
-0.25697911 -6.0830493 0.086439744 17.181818
-0.19017476 -6.0477052 0.0081008673 3
0.4942044 -6.1314483 0.006706675 1.2222222
0.68773377 -6.1415029 0.0040629655 1
1.0745127 -6.1236353 0.00044977665 1
1.3179724 -6.0647264 0.0042489646 1.4
1.5143027 -6.097609 0.11785686 15.6875
3.2437165 -6.1940966 0.1995191 18
-2.1030083 -5.9063249 0.12332983 53.965519
-1.9028223 -5.9295311 0.085627817 39.849998
-1.6994799 -5.9690948 0.10882235 73.533333
-1.4862695 -5.9651141 0.11522616 73.090912
-1.2942985 -5.9490318 0.082746238 75.074074
-1.1196378 -5.9301643 0.07041093 48.761906
-0.9708153 -5.9657478 0.12526299 68.800003
-0.2717424 -5.9133086 0.061553109 29.458334
1.5430498 -5.8918471 0.0944812 37.555557
2.3555856 -5.8321795 0.12420727 74.333336
2.5058029 -5.8369379 0.11001682 79.800003
2.7126734 -5.8326902 0.11022679 80.75676
2.9034185 -5.8235512 0.10542925 79.120003
3.0873342 -5.8175693 0.11086803 73.674416
3.2758756 -5.8162007 0.12782803 75.879997
-2.1342289 -5.7112923 0.10593532 34.523811
-1.3061954 -5.7676778 0.016378919 18.333334
-1.0802968 -5.6486001 0.025965072 20.25
-0.97936875 -5.6593623 0.039489467 21
-0.28529742 -5.6902122 0.096798956 9.541667
1.5437324 -5.6883626 0.15028811 6.8000002
2.2607377 -5.7780266 0.14358968 17
3.1190531 -5.7950864 0.15638702 73.555557
3.3297191 -5.7125168 0.13194773 90.555557
-2.1501052 -5.512022 0.10602541 48.555557
-1.0988605 -5.5713544 0.054880645 20.857143
-0.29929647 -5.5140944 0.11286298 10.695652
-0.061058283 -5.4458714 0.00085794926 1
0.54004151 -5.4094896 0.018414885 1
0.6960699 -5.4301414 0.015878061 1
0.90192634 -5.4641452 0.010173448 1
1.0956253 -5.4845428 0.0054685622 1
1.2966368 -5.4763041 0.0042094267 2.6923077
1.5190108 -5.4851537 0.097888082 6.6315789
3.334892 -5.4994922 0.17143282 94.673912
-2.1456413 -5.3686376 0.12626916 77.333336
-0.82456988 -5.20542 0.0097500384 4.5
-0.77613503 -5.2369199 0.0069631138 5
-0.28934562 -5.2879424 0.093037084 9.151515
-0.092845947 -5.2341323 0.034961298 1.5454545
0.090801314 -5.2897797 0.030853251 1.1428572
0.29872325 -5.334126 0.027828416 1.1333333
0.48647749 -5.37005 0.024481475 1
1.5470272 -5.3045106 0.15548722 10
3.3316264 -5.3187881 0.18942967 94.058823
-0.3082765 -5.1006227 0.098355189 12.695652
1.5521051 -5.1518445 0.13917616 7.75
1.9209774 -5.0107012 0.19799942 1
3.3440485 -5.1991711 0.1965304 100
-0.61731565 -4.8992391 0.098366238 29.727272
-0.50178868 -4.9286151 0.12385628 57.210526
-0.34204939 -4.9342551 0.12047946 46.613636
-0.10794501 -4.9347005 0.001112485 2.5999999
0.037769377 -4.9136996 0.0004042089 1
1.5642607 -4.9615541 0.11504644 82.125
1.6854281 -4.9659057 0.099249661 78.879997
-0.54187572 -4.6162114 0.013968945 3
-0.13800836 -4.7817388 0.0045556626 1
-0.53070247 -4.4454956 0.044487059 1
-0.005740881 -4.5137491 0.04765588 1
0.10144344 -4.5744309 0.038466178 1
0.22983098 -4.5766697 0.039932728 1
0.55794662 -4.4461336 0.010645441 1
0.70428973 -4.474329 0.0064769941 1
0.89251292 -4.4747229 0.0070067486 1
1.07996 -4.4733787 0.0062399656 1
1.334951 -4.4778323 0.0010932684 1
-0.28460562 -4.214632 0.026870124 2.7777777
-0.079129867 -4.2679605 0.026962955 1.1538461
0.041291256 -4.3393888 0.017954648 1
-2.1543758 -4.0891085 0.14918895 65.800003
-1.999738 -4.1277761 0.18279499 21
-0.41850662 -4.10781 0.039644122 1
-0.36892709 -4.1756291 0.029537627 1
-2.1816056 -3.8886247 0.14981979 95.25
-0.40238756 -3.919939 0.0096273124 1
-0.35019523 -3.8932779 0.11814576 17.777779
-0.12845504 -3.9985301 0.00080865622 3
0.34926885 -3.8129797 0.021708578 1
-2.2044711 -3.6549821 0.14747187 33.200001
-2.1829715 -3.7025139 0.12178198 46.8125
-0.40072775 -3.6083343 0.13743842 17
-0.36274871 -3.6929431 0.097401619 22.744186
-0.11009391 -3.665226 0.026981151 1
0.10765867 -3.6600595 0.01832418 1.7692307
0.29896063 -3.71346 0.015491832 2.4814816
0.49921361 -3.7333951 0.0095874425 2.2
0.70003814 -3.7554827 0.0064559639 2.8947368
0.88758695 -3.7718287 0.0038537523 2.8823528
1.0724838 -3.7763493 0.0017215728 2.2
1.4621254 -3.6969814 0.096158244 1.75
-2.2065008 -3.4906263 0.12343963 73.333336
-2.1843777 -3.5048323 0.11595827 67.571426
-0.41257951 -3.4693961 0.086294919 9.454545
-0.35489175 -3.5063431 0.069200106 16.888889
-0.10699867 -3.5634367 0.019265139 2.7894738
0.00088751316 -3.5942316 0.01913619 1
1.4483342 -3.4815292 0.10925725 2.25
3.2784417 -3.4809821 0.18426992 94.13636
-2.2118814 -3.3080046 0.067292862 13.75
-2.1821194 -3.2821944 0.093834504 51.1875
-0.41579357 -3.2991376 0.098312177 12.368421
-0.38032776 -3.2872219 0.10503944 20.892857
0.50860119 -3.2168262 0.015416218 1.8888888
0.68067253 -3.2457931 0.01497063 2
1.4427965 -3.2873733 0.094303913 1.9
3.2733283 -3.291507 0.15523331 82.736839
-2.2080441 -3.1209469 0.090865254 42.5
-2.1676583 -3.1278517 0.076182626 40.23077
-0.41578412 -3.1300533 0.11429552 24.285715
-0.36511844 -3.0793226 0.10057242 31.564102
-0.02763029 -3.0565243 0.02057145 2
0.074206397 -3.1004021 0.017988645 1.625
0.3386884 -3.1718986 0.017983902 2
0.42877972 -3.1883712 0.018756658 2
1.4528261 -3.0469418 0.1419934 4.6666665
3.2822058 -3.1402407 0.11072569 42.740742
-2.2004633 -2.89131 0.080682158 5
-2.1900969 -2.9287498 0.08869312 10.333333
-0.41068646 -2.8890328 0.11169147 44.533333
-0.37280232 -2.9103811 0.098970264 45.222221
1.4306831 -2.9300139 0.1368614 17.5
3.3302004 -2.9997542 0.011231184 1
-0.41104072 -2.7065084 0.14500481 46
-0.38508618 -2.7103317 0.11718832 54.694443
1.4277724 -2.7072456 0.15045112 24.5
4.7021046 -2.6766143 0.10134409 29.549999
-3.4516342 -2.5209994 0.17299309 25
-3.2967229 -2.514899 0.19021916 26
-0.40979829 -2.5021563 0.15099008 59
-0.39090723 -2.508297 0.10275628 66.900002
1.4192163 -2.554801 0.19125916 23.666666
4.6762595 -2.5220788 0.10805609 30.196079
-0.41041389 -2.2835755 0.13429955 74.083336
-0.39363968 -2.3178566 0.12546597 73.25
4.1576576 -2.2689476 0.12462237 3
4.3048735 -2.2994223 0.11924472 14.2
4.4832883 -2.2983954 0.10274021 20.266666
4.6964488 -2.3188105 0.13517015 25.09091
-0.4142639 -2.0994072 0.12564974 82.894737
-0.39527008 -2.1160376 0.17344987 79
-0.41407594 -1.9070936 0.080493562 88
-0.3990922 -1.8100567 0.15801644 96
-0.41854733 -1.6954618 0.11591764 96.739128
-0.42449373 -1.5020227 0.13297869 94.099998
-0.42849016 -1.2932804 0.1105481 8.5384617
1.4351934 -1.3444686 0.19397448 2
3.5456252 -1.286744 0.18636224 26.5
3.7058752 -1.2829825 0.15865533 27.846153
3.9056573 -1.2688984 0.11921366 26.450001
4.1050801 -1.2605946 0.10939509 29.107143
4.2997484 -1.2527623 0.098621354 39.096775
4.5096521 -1.244867 0.14602028 46.256409
4.7117181 -1.2411369 0.11408401 39.847828
4.9041867 -1.2313074 0.14230268 49.682243
5.0892096 -1.224575 0.13440223 61.483147
5.2968879 -1.2155802 0.1248201 53.25
5.4963627 -1.2089318 0.11557963 54.113636
5.6919675 -1.2081275 0.10016539 48.361702
5.8718033 -1.2048328 0.10784651 45.599998
6.0702381 -1.2210214 0.15764412 65.846153
6.7958574 -1.2118276 0.13546652 1
6.8072515 -1.2113165 0.12494423 1
-0.43899527 -1.098303 0.13039653 29.25
5.1875153 -1.1903933 0.020991385 7
5.5423031 -1.198822 0.12349743 57.333332
5.7091136 -1.1937271 0.097438768 52.743591
5.9180188 -1.186252 0.10403532 51.894737
6.0787368 -1.1078523 0.11154054 61.168674
6.3708711 -1.1632508 0.16860056 14
6.9094238 -1.1568081 0.13071376 24.712328
7.0887256 -1.1385278 0.15739463 93.524391
7.283371 -1.1241547 0.17306331 98.980766
7.5112672 -1.1126772 0.15989451 73.349998
7.7302203 -1.0908562 0.11560403 53.57143
7.8032165 -1.0892811 0.14989679 26.5
-0.44891015 -0.971861 0.1408058 5.5999999
4.7097321 -0.94216454 0.12842271 28.8125
4.9180841 -0.942159 0.083205201 3.6666667
5.090425 -0.93405282 0.064300261 10.133333
5.2678361 -0.92294127 0.069648795 9
5.5068474 -0.92136431 0.076122753 8.833333
5.6767545 -0.91823888 0.054811597 6.8888888
5.8989615 -0.91525275 0.097288236 49.47826
6.0735464 -0.87961233 0.10600448 61.675926
7.7440314 -0.89647734 0.11661236 67.675003
-0.47872743 -0.65411234 0.15876763 1.8333334
6.0879092 -0.71438044 0.10855664 52.897636
6.3063011 -0.65415686 0.12216055 9.34375
6.5000014 -0.65613973 0.11313787 9.8095236
6.6457386 -0.65327156 0.080884725 6.3333335
7.7462273 -0.71653956 0.10256642 91.462502
7.9059196 -0.63940257 0.11514048 39.46154
8.0971642 -0.63203675 0.11214144 38
8.300808 -0.62550211 0.12189186 37.86842
8.4740257 -0.61621094 0.11268318 36.734375
8.6839027 -0.62603176 0.16079837 21.76923
8.9320726 -0.69851822 0.090441093 34.400002
9.1117592 -0.73815268 0.11786444 44.68
9.298768 -0.74281335 0.10987904 51.333332
9.4900217 -0.7394079 0.11138925 51.741936
9.7025986 -0.72714716 0.11973853 44.225807
9.9044685 -0.71531492 0.13090375 47.692307
10.098747 -0.71520001 0.13674688 62.32143
10.299292 -0.7066986 0.14645806 55.974998
10.498336 -0.69878197 0.11556655 48.875
10.69307 -0.69302434 0.070191398 44.225807
10.908391 -0.68505228 0.12044565 45.84375
11.04236 -0.65335476 0.12099983 66.283333
12.550979 -0.6265555 0.10027818 49.32
12.705378 -0.62289214 0.10086007 42.333332
12.844527 -0.61804372 0.090505354 36.476189
-0.44725069 -0.55592757 0.17324425 3
8.0544214 -0.59670222 0.18394119 19
8.2946615 -0.5879432 0.15625155 19
8.5385389 -0.4997192 0.1609192 50.92857
8.6940994 -0.48186839 0.11206833 16.649635
8.9441967 -0.52159148 0.19437946 21.238094
9.3436899 -0.46419874 0.1714575 22.956522
9.5047541 -0.46346343 0.096330747 14.3
9.7601175 -0.41785988 0.19871771 16
9.9906759 -0.5119561 0.18400648 26
10.047249 -0.55039716 0.1677165 35
10.997437 -0.48318708 0.16521382 74.666664
11.030896 -0.49144554 0.11682585 61.69173
11.785552 -0.52737075 0.14579202 48.166668
11.882307 -0.50772297 0.11007389 44.432835
12.116838 -0.51805419 0.12673606 31.696428
12.243546 -0.52847719 0.13005902 29.631578
12.702663 -0.47705346 0.095009029 31.986013
12.827799 -0.58182657 0.072486401 24
15.117041 -0.4794983 0.18368411 19
15.300179 -0.49894959 0.14294514 51.5
15.517918 -0.51305687 0.13729469 46.551723
15.70014 -0.50705212 0.11569178 42.575756
15.906823 -0.49981079 0.11258825 37.348839
16.104515 -0.4943206 0.15446602 44.963634
16.299156 -0.48636195 0.13363256 39.483334
16.498875 -0.48119679 0.11822297 39.190475
16.721767 -0.4559814 0.099974662 78.599998
18.113741 -0.42555892 0.14766687 42.555557
18.30695 -0.42250869 0.11258648 38.210526
18.508457 -0.41394979 0.11751524 38.75
18.672205 -0.40833575 0.1062219 29.411764
18.857748 -0.40368789 0.11773065 22
8.5510311 -0.30914494 0.17874393 37.685715
8.6756134 -0.34890693 0.14699537 16.441177
9.3589382 -0.26561603 0.15030079 13.464286
9.4852982 -0.34001106 0.13927065 13.266666
9.7678709 -0.33621159 0.19901246 14.111111
10.988428 -0.39484298 0.079771042 62
11.072857 -0.35609305 0.11540226 32.708332
11.242179 -0.33270574 0.11255506 14.846154
11.414971 -0.35216221 0.012161255 2
12.70725 -0.30158153 0.095631287 29.190699
12.935749 -0.21911696 0.123408 15.6
13.015675 -0.21763229 0.089093655 21.476191
13.540628 -0.21605477 0.10754271 11.1
13.694699 -0.21051344 0.084777094 10.85
13.885051 -0.20439631 0.12274013 9.7647057
14.088935 -0.20508552 0.11178346 16.727272
14.430584 -0.2018494 0.10282412 22
16.74831 -0.3511939 0.10348507 83.234566
16.90111 -0.31124863 0.087644488 29.142857
17.096363 -0.30472642 0.12483068 32.633335
17.297297 -0.29495952 0.10910306 30.145161
17.473427 -0.28309917 0.11786881 30.4375
17.947845 -0.3929508 0.12195617 40.666668
18.110868 -0.39236054 0.13905554 47.083332
18.303474 -0.38832426 0.10750012 42.863636
18.538557 -0.32360476 0.10753577 35.76923
18.660769 -0.31908312 0.13652644 20.235294
18.903257 -0.331135 0.10511351 17.6
19.11108 -0.28798962 0.097740978 34.317074
19.270651 -0.35525119 0.12907068 31.481482
19.517822 -0.28625232 0.12788126 14.666667
19.734255 -0.25110415 0.10119939 59.658226
19.89406 -0.33421353 0.07825911 27
21.689247 -0.36870408 0.15450233 13
22.494226 -0.31837198 0.062467605 6.7142859
24.622578 -0.21411145 0.14780682 15
25.431511 -0.21132696 0.10668409 28
5.3393278 -0.042856365 0.096286118 61.75
8.7269697 -0.19180031 0.14351711 15.8
8.8186769 -0.17962201 0.17155421 5.3333335
9.3685217 -0.18807146 0.19660008 4.5
9.5249538 -0.18609299 0.17428814 13.555555
9.6325045 -0.16235276 0.16668555 17.6
12.985373 -0.18212794 0.10349552 11.181818
13.077206 -0.17046827 0.12648854 12.376471
13.262528 -0.16034055 0.12086271 5.1923075
13.53354 -0.1870335 0.10598113 2.4285715
13.717748 -0.19099037 0.10350046 8.3684206
13.902208 -0.18721716 0.090070523 5.3548388
14.136336 -0.18217926 0.11193304 10.162162
14.268027 -0.17112781 0.11140981 5.352941
14.494604 -0.15346338 0.12306334 6.8133335
14.625216 -0.13725272 0.11292788 1.5
19.757694 -0.12085569 0.1038067 93.4375
20.691717 -0.031907938 0.046452902 59.599998
23.697409 -0.0093063414 0.064206183 74.5
25.129368 -0.12330006 0.035929434 34.714287
25.272579 -0.1177383 0.014280506 46.142857
25.488764 -0.10745473 0.096478507 36.272728
25.731009 -0.072702795 0.15148495 86.666664
27.560677 -0.025526583 0.19416411 9.666667
27.698627 -0.017979205 0.1661801 9.3999996
27.925594 -0.014943023 0.10603675 7.1111112
28.100027 -0.019117046 0.11550218 6.4000001
28.290573 -0.015262194 0.11200657 6.625
28.498714 -0.0092586353 0.10235735 6
28.693047 -0.0037476867 0.10480779 5
28.931898 -0.000623703 0.085876644 4
5.3599281 0.10915498 0.08041928 44
18.51148 0.095970482 0.10248603 36.491802
18.988268 0.12655774 0.072148025 65
19.094019 0.12663777 0.09529908 41.529411
19.218403 0.088937223 0.16351938 84
19.597893 0.18311903 0.010021448 18
19.720987 0.098394305 0.10330185 48.527271
19.820211 0.052706242 0.094320178 1
20.704346 0.070353761 0.081606492 71.720932
21.692322 0.11135379 0.052570127 73.391304
22.689995 0.13881469 0.08374282 81.301888
23.697744 0.1353842 0.097445033 89.272728
25.758116 0.032901403 0.12910739 83.148148
25.890324 0.051003914 0.12153284 32.702702
26.085081 0.061439455 0.098466158 32.533333
26.32551 0.11525174 0.10475221 85.010101
26.40892 0.18868124 0.070058823 74.666664
28.164907 0.0034533888 0.097154617 8
28.311129 0.0092515126 0.096143089 5.75
28.505169 0.014657284 0.077519462 5.5714288
28.722883 0.012868382 0.09977445 5.375
28.893377 0.021255404 0.10823952 5.8125
29.100433 0.026369317 0.11061308 5.2272725
29.311083 0.040246982 0.12901682 5.3846154
29.500269 0.045410711 0.097571857 4.4166665
29.715464 0.113829 0.083497107 14.44
22.688162 0.20885596 0.07313066 60.333332
23.698359 0.24260131 0.11721094 56
26.342297 0.22409439 0.1069959 80.5625
26.485695 0.30052066 0.090838127 84.562088
29.717421 0.30668095 0.087582372 15.276316
26.496754 0.50022912 0.072367288 94.291664
29.702728 0.50228113 0.088991389 17.813084
26.488552 0.70167762 0.078917921 94.803574
29.692854 0.69752848 0.097436361 18.555555
2.5706577 0.90814817 0.18584973 11.25
2.6995213 0.89360487 0.16167578 66.400002
2.8963704 0.90108311 0.11719095 68.285713
3.1012001 0.90736026 0.11883773 69.35714
3.3051062 0.924797 0.08499264 37.227272
3.5116513 0.94202381 0.103496 27.578947
3.7088504 0.93715221 0.11812022 38.740742
3.8988693 0.93903494 0.11496449 36.240002
4.1186152 0.94826126 0.11363933 39.619049
4.2964349 0.95347255 0.094323106 44.25
4.4983993 0.95711732 0.11808896 35.458332
4.695981 0.96202374 0.13203773 38.15625
4.9007492 0.97128183 0.10989957 35.575756
5.0992942 0.97723311 0.10425228 36.205883
5.2925305 0.98185778 0.11212044 33.682926
